# .PCD v0.7 - Point Cloud Data file format
VERSION 0.7
FIELDS x y z intensity
SIZE 4 4 4 4
TYPE F F F F
COUNT 1 1 1 1
WIDTH 1198
HEIGHT 1
VIEWPOINT 0 0 0 1 0 0 0
POINTS 1198
DATA ascii
0.88605404 -1.3097143 0.29347235 17.152
0.86941934 -1.2654605 0.28938389 17.792
0.88779658 -1.0397984 0.29515266 18.688
0.87223554 -0.98889428 0.29104811 18.688
0.33070445 -5.025053 0.30261001 10.069333
0.99059951 -1.6631485 0.32088554 22.656
1.0333486 -0.41369039 0.33846939 14.592
1.137526 -0.45112547 0.36583555 16.981333
1.0739228 -0.31145641 0.36208767 23.040001
1.0969765 -0.29275841 0.3725884 23.040001
0.98753762 -0.15358707 0.3627719 23.253334
0.98496199 -0.04099812 0.38196987 23.040001
1.022472 -0.019634023 0.39674252 23.1936
1.005064 1.7573097e-07 0.39400962 23.296
5.1644568 -5.1500182 1.3791209 19.200001
5.2214804 -5.1406379 1.3939173 19.455999
5.4978466 -5.2087016 1.4713999 18.688
5.5259418 -5.2018652 1.4743111 18.944
5.5818377 -5.1048946 1.4937094 19.200001
5.6043396 -4.7434916 1.4986602 18.688
5.6169696 -5.1041121 1.5045263 19.200001
5.6102228 -5.0490384 1.5055969 19.327999
5.6207867 -4.9457865 1.507745 19.0464
5.5980196 -4.8311429 1.50292 19.200001
5.6327505 -4.8298025 1.5107989 19.072001
5.6088824 -4.7166176 1.5017996 19.455999
5.6358194 -4.647624 1.5077114 19.507198
5.747005 -4.6321421 1.5356755 19.968
5.6852727 -4.0656128 1.5164591 18.048
6.0708976 -4.657352 1.619872 19.370667
6.1833634 -4.0582047 1.6450657 18.688
6.1230073 -3.8524661 1.6279777 18.431999
6.251267 -3.7539642 1.6560229 17.408001
6.3201218 -3.7268755 1.6766851 17.024
6.3325195 -3.6527958 1.6811402 17.216
6.292613 -3.5629048 1.6738626 18.176001
6.3056893 -3.5304468 1.6757684 18.688
6.3058076 -3.4908614 1.6744118 18.944
6.3990827 -3.3314228 1.6991659 18.176001
6.2487731 -2.8567402 1.6715291 18.431999
6.4408836 -3.4453807 1.7107035 18.048
6.4149408 -3.3789184 1.7073162 18.048
6.5478611 -2.8427811 1.7570047 20.650667
1.5993608 -1.3027494 0.099279001 21.76
1.6014061 -1.237565 0.092514828 22.528
1.663035 -1.1350522 0.078672238 22.926222
1.6617929 -1.042575 0.067998894 23.040001
1.653452 -0.96138114 0.059481215 22.954666
1.6559812 -0.84592271 0.045756292 23.082666
1.6698573 -0.72455478 0.026695397 22.976002
1.6751108 -0.66024464 0.015261894 23.040001
1.0126841 -0.26210141 0.010296991 22.9888
0 0 0.069999725 22.768517
1.6004587 -1.5029311 0.11632653 19.712
1.5842301 -1.3595756 0.10606426 20.650667
0.43986994 -1.1388558 0.18223968 23.040001
0.55180705 -1.1059403 0.16016161 22.528
0.61710906 -1.108639 0.1518705 22.4
0.72574884 -1.0714297 0.13542558 21.248001
0.090284698 -0.73598623 0.18904695 23.552
0.24393837 -0.75185007 0.15247233 23.488001
0.029181222 -0.66335917 0.19520274 23.705601
-0.034402121 -0.66022772 0.21568109 23.738182
-0.45951265 -0.45357686 0.25710136 23.552
-0.45408672 -0.37197784 0.24026904 23.603199
-0.44315845 -0.26370656 0.23156857 23.8592
-0.4398104 -0.15970662 0.25855985 23.936001
-0.43543676 -0.072818473 0.29164755 24.063999
-0.28020805 0.039212935 0.25721422 23.0912
0.66221082 0.075541459 0.29481769 23.68
-0.46896213 -0.64767247 0.32613879 23.488001
-0.43697774 -0.04811012 0.30396551 23.808001
-0.28319496 0.13663118 0.31831238 23.167999
0.65361428 0.12387048 0.3003487 23.552
-0.28723323 0.22561271 0.3536984 23.210665
0.65942627 0.253777 0.33735377 21.430859
-0.29210281 0.30487847 0.38703001 23.167999
0.66254884 0.30630517 0.35602805 10.922668
0.7144798 0.32474595 0.3762944 13.184
-0.28702265 0.34582219 0.4074448 23.296
-0.39640304 0.65676367 0.64611799 23.167999
-0.40082219 0.70027208 0.67583948 23.296
-0.51616389 -2.6147525 0.77155519 23.040001
-0.40215343 0.76738381 0.72057199 23.040001
3.3937559 3.4971802 2.3777726 20.48
3.2335644 3.5758691 2.3917141 20.224001
3.3344874 3.5423005 2.391026 20.352001
3.4270468 3.5164258 2.3937781 20.309334
-0.20830348 3.3537228 2.4314826 21.76
-0.16604857 3.3705389 2.4300466 21.76
3.2921181 3.5883157 2.4059381 20.096001
3.3627584 3.5781035 2.4138238 20.224001
3.4061348 3.578068 2.4187388 20.224001
3.1643872 3.6610765 2.4198704 20.672001
3.2169948 3.6269765 2.4150553 20.288
3.1520777 3.7183731 2.4451947 20.608
3.1628664 3.8419952 2.5113516 20.736
3.1776886 4.2901092 2.7350225 20.736
2.0706184 4.6390209 2.8037488 20.48
2.7225931 4.6099668 2.8355684 20.736
6.4610577 3.2612126 2.9554772 18.751999
6.2699361 3.3817892 2.9513907 18.560001
6.341578 3.3423016 2.9534714 18.688
6.4131765 3.3146906 2.960989 18.688
6.0859499 3.4867141 2.9414601 18.944
6.1603765 3.4641213 2.9523261 18.816
6.2259526 3.4227319 2.9532008 18.304001
6.3145676 3.4059324 2.9687066 18.688
5.9624848 3.5697689 2.9441259 18.602667
6.0286713 3.5312235 2.9428356 18.858667
6.1004043 3.5209851 2.953584 18.688
5.778266 3.676744 2.9415803 19.072001
5.8501754 3.6439672 2.9426978 18.688
5.9206791 3.6094809 2.9461298 18.944
5.5673542 3.7721355 2.9291339 18.816
5.6194348 3.7638922 2.9384146 18.944
5.7264271 3.7280006 2.9488332 18.944
5.3526945 3.8824179 2.9263451 19.455999
5.4583778 3.8533709 2.9379406 18.944
5.5334644 3.8403506 2.951978 18.816
5.1392069 3.9847074 2.9295518 19.071999
5.2855172 3.9379604 2.9392157 19.114668
5.3542767 3.9229314 2.9462764 18.688
4.8765063 4.0903573 2.9301925 19.200001
4.9256635 4.0781846 2.9318674 19.200001
5.047318 4.0444446 2.9407547 19.114668
5.140758 4.0299144 2.9512806 19.114668
-0.045332287 4.1951222 2.9468844 20.992001
4.6386619 4.1778035 2.9292021 19.285334
4.8219872 4.1375642 2.9443069 19.072001
4.9170437 4.1243992 2.9539728 19.200001
-0.027086694 4.2382803 2.9716189 20.927999
0.042733725 4.267313 2.9628344 20.949335
4.5851049 4.2100158 2.9363899 19.712
4.634418 4.2280273 2.952909 19.455999
0.16129407 4.3312593 2.9674761 20.8384
0.25182629 4.3688684 2.9642351 20.699429
0.36969447 4.4096665 2.952184 20.736
0.44610652 4.4593639 2.9645658 20.736
0.51242286 4.4732933 2.9512122 20.864
0.59089959 4.51757 2.9584208 20.736
0.65182382 4.5312109 2.9534512 20.096001
0.71320415 4.544179 2.9442825 19.968
0.80158347 4.57934 2.9428618 20.48
0.79115039 4.6065254 2.9632707 20.736
0.86286658 4.6315351 2.9663901 20.428799
0.94706154 4.667469 2.9698434 20.3776
1.0235012 4.688868 2.9725366 20.416
1.1201044 4.6966171 2.954803 20.48
3.1894405 4.6870646 2.9436097 20.224001
3.2051792 4.6619482 2.9348907 20.352001
1.0761392 4.7123737 2.9731147 20.352001
1.1594753 4.720788 2.9607971 20.3776
1.2789171 4.7514992 2.9589438 20.48
1.3060446 4.7609925 2.9608543 20.224001
2.6284103 4.7946877 2.9263957 19.455999
2.9643354 4.7718015 2.9518025 19.968
3.0413072 4.7417808 2.9480631 20.010668
3.1466649 4.7209959 2.9523568 20.326401
1.5575694 4.8197107 2.960278 20.1728
1.645677 4.8268604 2.9541202 20.224001
1.7505125 4.8529334 2.9595318 20.138666
1.8465824 4.8453636 2.9461172 20.0704
2.0412834 4.8633275 2.9448998 20.053335
2.3816073 4.8775268 2.950743 19.968
2.4554522 4.8543839 2.9446528 20.004574
2.5500607 4.8150511 2.9323459 19.712
2.6137152 4.8226509 2.9435878 19.584
2.7377801 4.8278246 2.9558039 19.84
0.06625925 -0.1163629 0.0081491116 22.528
0.11015276 -0.12762834 0.0014334098 22.528
-0.06692107 -0.03202343 0.012882511 22.400002
0 0 0.069999717 22.434639
0.021547882 0.12440035 0.019440707 22.784
0 0 0.069999732 22.571449
1.2879664 2.9322443 0.022085201 22.016001
1.3004043 3.1218016 0.034973592 19.455999
-0.28510356 0.034473188 0.16098155 23.296
-0.27902305 0.13245189 0.1479238 23.219202
-0.27420402 0.24574758 0.1464283 23.040001
-0.27433673 0.33847183 0.14940533 23.167999
-0.28095955 0.4258047 0.15391129 23.296
-0.37901416 0.81298703 0.19010505 23.296
-0.17356104 1.4315104 0.17750861 22.912001
1.6955748 6.2811079 0.18730706 17.92
1.9263408 6.2891927 0.1431732 17.92
1.7780058 6.3052979 0.17304102 17.664
1.8397337 6.3553958 0.16391133 17.92
-0.44863683 -0.23068352 0.27951884 23.808001
-0.44361869 -0.16483189 0.25485617 23.808001
-0.4396112 -0.06496273 0.22577687 24.063997
0.086730294 2.8557336 0.22028139 22.784
0.15411325 2.8390999 0.21194124 22.528
0.98037338 6.3405709 0.29897749 18.688
1.0576818 6.3678675 0.29294163 18.880001
1.1501245 6.3804731 0.28145948 18.4832
1.253615 6.3756113 0.26697057 18.112
1.3572856 6.3886971 0.24791929 18.048
1.4429795 6.3423285 0.23621173 18.1248
1.5551608 6.363143 0.21927258 17.920002
1.6133597 6.3374057 0.20798805 17.664
1.2902033 6.4258952 0.26364237 18.431999
-0.46058181 -0.42860344 0.36996913 23.552
-0.45571634 -0.35897323 0.33657357 23.637335
0.85058308 6.3756471 0.32550651 21.119999
0.92364591 6.3779807 0.30989811 20.223999
0.97039676 6.411674 0.30641395 18.688
1.0121658 6.4104533 0.30161679 18.176001
-0.47530228 -0.65699017 0.48182449 23.296
-0.4559426 -0.52418244 0.41347343 23.552
-0.49022433 -0.85118657 0.58697349 23.040001
-0.51189518 -1.1026145 0.73988688 22.784
0.093342856 -1.2405071 0.96583372 22.784
0.35547858 -3.1466358 2.375634 21.606401
0.44474378 -3.1182296 2.3790038 20.906668
0.52916431 -3.1140621 2.3953257 20.821333
0.56519383 -3.0867643 2.3850992 21.077333
0.6125347 -3.0762072 2.3877039 20.992001
-0.62165385 -3.6701605 2.4593992 21.845335
-0.56276375 -3.652292 2.4628072 21.76
0.54362321 -3.1187372 2.4036729 20.736
0.67546272 -3.0826027 2.4078567 22.067202
0.73877686 -3.0686243 2.4135671 21.942856
-0.50872028 -4.3412423 2.9600544 22.016001
-0.45740589 -4.342999 2.9703758 22.058668
-0.34655446 -4.3269863 2.9919333 22.08
0.14052294 -4.1217504 2.9952908 21.333334
2.8114355 -2.1106739 2.9992771 20.992001
2.8135993 -2.0658813 2.9906247 20.906668
-0.40606338 -4.3687053 3.0001369 22.016001
-0.34900543 -4.3583045 3.0126555 22.101334
-0.24981917 -4.337039 3.0294578 21.796572
-0.12388488 -4.3056917 3.043251 21.119999
-0.13681047 -4.2779298 3.0195084 20.992001
-0.054619212 -4.264647 3.0374849 21.247999
0.14260158 -4.1521225 3.0184202 21.119999
1.2387785 -3.7731631 3.0234568 21.120001
1.3486911 -3.7697115 3.0475502 21.056
1.4501067 -3.7483335 3.0589631 20.992001
1.5495398 -3.7363353 3.0782084 20.799999
1.6248412 -3.7153008 3.0856676 20.992001
1.5885478 -3.6964948 3.0620961 20.992001
1.6650399 -3.6940129 3.0833805 20.821333
2.3758349 -3.3054688 3.0973043 20.736
2.2275929 -3.2614107 3.0071952 20.48
2.3902419 -3.2920985 3.0955143 20.736
2.4357088 -3.2443933 3.0871594 20.792891
2.4869263 -3.1766245 3.0702517 20.821333
2.5279729 -3.1350965 3.0650799 20.906668
2.5662217 -3.0475137 3.0525346 20.864
2.5916369 -2.9891541 3.0500312 20.992001
2.6211092 -2.9463327 3.0560966 20.955429
2.6448109 -2.8239944 3.0406573 20.906668
2.6776245 -2.7691228 3.0510859 20.955431
2.7049131 -2.7266126 3.0659416 20.992001
2.6971388 -2.6799965 3.0453231 21.119999
2.7161195 -2.6462042 3.0538738 21.120001
2.7395046 -2.5657346 3.0514939 21.205332
2.7755268 -2.4376235 3.051302 21.196798
2.791703 -2.3383284 3.040205 20.992001
2.8087616 -2.3272443 3.0528822 21.248001
2.8078022 -2.2739933 3.0397396 21.312
2.799509 -2.1941075 3.0152614 20.992001
2.8175182 -2.1578934 3.0169613 20.992001
2.8279638 -2.087955 3.0058866 20.864
1.6789855 -3.7197497 3.1050618 20.992001
1.7293229 -3.693979 3.1032722 20.650667
1.9398335 -3.6177731 3.1228793 20.77257
2.0253961 -3.6094987 3.1480279 20.48
1.9922354 -3.5838885 3.1193838 20.992001
2.0618353 -3.565016 3.1327682 20.662857
2.146894 -3.5164742 3.134047 20.735998
2.1960921 -3.4959474 3.1402702 20.736
2.2248394 -3.4616277 3.1302748 20.608
-0.3016727 -0.31334153 0.0035870448 23.296
-0.26495019 -0.30545905 0.0038711478 23.296
-0.3070969 -0.29731944 0.0074167997 23.296
-0.29592311 -0.2846753 0.009879563 23.040001
-0.044119876 -0.20979123 0.012336548 22.271999
-0.25090733 -0.14299317 0.040292419 23.210669
-0.43930665 -0.0033914719 0.069943011 24.149332
-0.31412068 -0.041642006 0.060881421 23.552
0.08620175 -0.086858399 0.010663006 22.528
-0.43126345 0.040160935 0.079337426 24.127998
3.1495299e-05 5.5068133e-12 0.069978483 22.439581
-0.41594368 0.13155612 0.094961435 23.49511
-0.31375527 0.14592528 0.095931381 22.016001
-0.27825093 0.1387209 0.094123453 21.119999
-0.2745766 0.24451083 0.11449096 23.040001
-0.27265236 0.30781952 0.12838186 23.210665
-0.27821052 0.42067692 0.15216368 23.040001
-0.37401316 0.9636364 0.28598976 23.167999
0.57936084 0.17520282 0.44771516 10.624001
0.62825352 0.17348006 0.486103 14.592
0.63637054 0.074552804 0.53214115 23.552
0.65395814 0.12996541 0.52249265 21.930666
0.72394574 0.19289646 0.55225974 16.639999
0.68156165 0.20450689 0.51542914 11.136
0.85379511 0.27719563 0.61949658 1.9200001
-0.14896491 3.923878 1.3439877 21.942856
-0.054776546 3.9212399 1.3705139 21.567999
0.0015652456 3.918731 1.3866242 22.016001
4.1582994 4.2574215 2.2905231 18.688
4.0680966 4.3419418 2.2796481 19.200001
4.1145897 4.3356991 2.2950273 18.944
3.4321268 4.8869576 2.2877712 19.285334
3.2594316 4.9541631 2.2723372 19.456001
3.3374729 4.9342694 2.2823172 19.455999
3.2908204 5.0019989 2.2935739 19.455999
3.8505025 1.7646948 2.3829417 19.968
4.2218246 4.2539463 2.3149688 19.370667
4.1110029 4.3597336 2.3006091 18.944
3.4724429 4.9109998 2.3036697 19.712
2.399049 5.6776366 2.359024 20.48
2.4920871 5.6937461 2.3781719 20.992001
2.5505965 5.6786027 2.3818622 20.9408
2.6272852 5.678627 2.3936641 20.736
2.440732 5.7125607 2.3770404 20.672001
0.95375574 6.0894456 2.359024 20.736
1.0603662 6.0891852 2.3654068 20.992001
1.1964004 6.0990057 2.3781719 20.736
1.2553729 6.0900126 2.3792162 20.736
1.3973384 6.0869107 2.3893125 20.992001
1.4787793 6.0840411 2.3952308 20.736
0.67506921 6.1668301 2.3225751 19.327999
0.75221139 6.1446419 2.335284 20.352001
0.83297604 6.1218052 2.3461254 20.940802
0.93500394 6.1301069 2.3674884 20.799999
1.028407 6.1177764 2.3738782 20.650667
1.1484329 6.1124716 2.3797386 20.864
1.247265 6.1165047 2.3882682 20.821333
1.3481638 6.1187987 2.3968844 20.799999
1.4418113 6.1015778 2.3983641 20.736
0.58663273 6.2857676 2.3376541 18.944
0.67894888 6.2022972 2.3328092 19.455999
0.32997617 6.3990078 2.3107057 20.48
0.47063416 6.358057 2.3324842 19.712
0.54009587 6.3333759 2.3449655 19.391998
0.35857162 6.4511547 2.3336644 20.224001
0.49648064 6.4281807 2.3691347 19.455999
3.8828077 1.7495804 2.4083185 20.736
2.7508805 5.681469 2.4142625 20.736
2.8588805 5.680687 2.4317856 20.736
2.9605846 5.6691628 2.445189 20.928001
3.0553389 5.6727576 2.4628572 20.800001
3.1408653 5.6572371 2.4730403 20.864
3.2787044 5.6062307 2.4819179 20.48
2.832824 5.7105808 2.4373558 20.736
1.6562691 6.0886493 2.4133341 20.991999
1.7464604 6.0741477 2.4171636 20.992001
1.8457204 6.088253 2.4326558 20.736
1.9580226 6.0723228 2.4394445 20.864
2.0603609 6.0883217 2.4570258 20.608
2.1450088 6.0814228 2.4648588 20.864
2.2463088 6.0882959 2.4800379 20.684803
2.3578115 6.0891962 2.4949732 20.992001
1.3257706 6.1335926 2.4004529 20.992001
1.44663 6.1220789 2.4061971 20.736
1.5504189 6.1222429 2.4154229 20.927999
1.6372786 6.1085639 2.4186723 20.821333
1.7587267 6.1166248 2.4336133 20.992001
1.8508749 6.1053705 2.4392705 20.864
1.9357071 6.1142063 2.4517453 20.736
2.049639 6.1102586 2.4634664 20.992001
2.3193581 6.1054597 2.4954953 20.48
3.2776072 5.6665244 2.5010655 21.247999
4.2602215 5.5234261 2.6605139 20.48
5.1347184 4.5959158 2.7501979 22.528
4.4685712 5.5694332 2.7217867 20.224001
4.4706206 5.6086063 2.7336235 20.48
4.8756685 5.8248076 2.8909831 19.584
5.192914 3.1126013 2.9999194 19.455999
5.3596187 3.6846666 2.9987221 18.688
5.3582587 3.7089999 2.9924221 19.200001
5.3868918 3.8315687 2.998033 18.688
5.4033146 3.8954844 2.9899175 18.944
5.4260931 3.9515872 2.9909701 18.816
5.4530358 4.0924501 2.990298 18.688
5.4556594 4.2603583 2.9660349 19.072001
5.4709015 4.3572841 2.95839 17.92
5.5042849 4.3267274 2.9865527 18.688
5.4989605 4.5546131 2.9548461 18.431999
5.5499458 4.7586188 2.9738276 18.261335
5.465127 5.0999875 2.9312105 18.688
5.4755983 5.1425877 2.9386744 18.176001
4.9852581 5.7846255 2.9059529 19.455999
5.0107627 5.7581854 2.9047346 19.455999
4.6797829 1.6422613 3.0435562 20.096001
4.7035236 1.6737489 3.0554509 20.224001
4.6786118 1.7495805 3.0000584 20.48
4.7983766 1.9712942 3.0227177 19.712
5.0752234 2.647759 3.0269613 19.712
5.1198511 2.7760427 3.0276384 19.456001
5.1404476 2.829845 3.027313 19.455999
5.1956468 3.0692811 3.0132239 19.200001
5.2224426 3.0626435 3.034353 18.944
5.2349234 3.1150889 3.0237606 19.455999
5.2586632 3.2789993 3.0047817 19.455999
5.2966247 3.4574399 3.0003107 18.944
5.3134775 3.4685147 3.0126035 19.072001
5.3357639 3.5687542 3.0080509 19.029333
5.3580599 3.6459193 3.0062497 18.816
5.3848557 3.765727 3.0046387 19.072001
5.4121299 3.849618 3.0056605 19.072001
5.4535995 4.038733 3.0013969 18.602667
5.5082307 4.2449937 3.0045743 18.431999
0.2411765 -1.0129542 0.060086377 23.488001
0.07075844 -0.89223373 0.028427772 20.736
-0.14520137 -0.73551571 0.00933496 23.808001
0.014812289 -0.74112225 0.027301174 23.936001
-0.1919222 -0.60046011 0.012532827 23.552
-0.18540195 -0.58591115 0.013989237 23.552
-0.03879888 -0.41963673 0.039934006 23.807999
-0.25743306 -0.36838746 0.0022608526 23.552
-0.23899394 -0.14492896 0.0038870573 23.040001
-0.23608521 -0.082382925 0.0064325184 23.040001
-0.13809453 0.065346688 0.00092525408 23.424
-0.082134232 0.090344109 0.012407366 22.528
2.9476894e-05 0 0.069979839 22.59479
0.85809952 -1.5028723 0.13974087 23.040001
0.75395459 -1.4787544 0.12630653 21.845335
0.85403299 -1.1088514 0.15169965 21.888
0.69423616 -1.0532913 0.13150382 21.76
0.87167668 -1.0668833 0.15783344 20.48
1.5977862 -1.6431266 0.25059751 22.016001
1.5382749 -1.5030209 0.24777225 19.200001
1.5504766 -1.476656 0.25360236 19.455999
1.5962546 -1.2397275 0.27928403 19.84
1.6187017 -1.2695379 0.28143087 18.944
1.6176229 -1.171325 0.28766045 19.712
1.0653131 -0.3489677 0.26589194 23.040001
1.047179 -0.21734379 0.27867034 23.040001
0.98226899 -0.13099851 0.27339613 23.125334
1.0141714 -0.17033055 0.27634016 23.142399
0.98511696 -0.068310849 0.28053457 23.202913
1.0231311 -0.0032714682 0.29692695 23.296
1.0200337 1.7834836e-07 0.29705989 23.040001
1.6436732 -0.73827446 0.34485477 20.684799
0 0 0.069999732 21.573299
0.9687891 -0.10867206 0.19569643 23.210665
0.97762072 -0.049700901 0.18424985 23.264
1.0092757 1.7646737e-07 0.17764512 23.040001
-0.0015799168 -0.56511432 0.2803624 23.552
1.0912195 -0.32554737 0.25372064 22.912001
1.0459521 -0.23564951 0.23118901 23.040001
1.1057302 -0.26829004 0.24373028 22.784
0.98619604 -0.15410656 0.20725481 23.219204
-0.28432786 0.068703711 0.2932637 23.040001
1.0110706 0.0032304935 0.2958802 23.296
-0.27370268 0.10865725 0.28900665 23.040001
0.6769895 0.16929419 0.25535962 23.616001
0.57297891 0.24183895 0.25896835 14.08
0.66844153 0.23954342 0.27652672 20.117334
1.6329696 -0.7402336 0.38986462 20.889599
1.6020626 -0.65816808 0.37128809 20.992001
-0.29552871 0.029606177 0.31022957 23.040001
1.0261003 0.033730771 0.30272102 23.296
-0.28195807 0.16194616 0.31188199 23.210665
-0.29233629 0.23246869 0.34778637 23.296
0.71971548 0.28964031 0.30280545 17.408001
-0.2838906 0.34363997 0.39176381 23.104
0.71540463 0.31347218 0.309618 10.88
0.48612529 -0.90258265 0.43735236 17.152
0.50037026 -0.9219625 0.44498101 18.176001
1.5785329 -0.89880079 0.42055833 18.688
1.6341262 -0.84341621 0.41139972 22.208
-0.44879383 -0.30695868 0.49480644 23.296
-0.44839516 -0.27101606 0.49146229 23.4496
-0.48465443 -0.7281391 0.57089829 23.040001
-0.47456446 -0.65439028 0.5517084 23.296
-0.46442854 -0.54009604 0.52952367 23.296
-0.45989269 -0.43005461 0.51359314 23.442286
-0.45824471 -0.37123436 0.50805092 23.4496
-0.45643935 -0.29846692 0.50081962 23.296
-0.51004118 -0.99795604 0.63699019 22.784
-0.40595132 0.69285059 0.61187524 23.360001
-0.39872009 0.69572699 0.6077497 23.296
-0.40178999 0.94876957 0.71768063 22.784
-0.39548004 0.94224197 0.71235871 22.784
-0.39538911 1.0849739 0.77505893 22.784
-0.49039212 -2.6216905 1.0752888 22.869333
-0.50289327 -2.5965748 1.0684112 22.528
-0.46830869 -2.5952544 1.0632099 22.784
5.6811934 -3.4548118 1.3902862 17.92
5.7540278 -3.4614336 1.3979897 17.664
5.6550517 -3.6018729 1.4387766 19.712
5.6587334 -3.5378654 1.4217854 19.968
5.6842799 -3.4816129 1.4042161 18.944
5.8144317 -3.4599316 1.4026933 17.664
5.7085552 -4.3127985 1.6914382 19.968
6.056282 -4.3222604 1.6933297 17.152
5.6512012 -4.2695122 1.6780354 19.968
6.075808 -4.2778807 1.6792693 17.535999
1.0366956 -4.5159264 1.7947625 20.736
5.7375574 -4.5621672 1.7904918 19.712
0.28459287 -4.4194613 1.7185366 22.016001
0.34950048 -4.4326458 1.7251899 21.869717
0.45127368 -4.4504919 1.7352073 22.089144
0.53584307 -4.4359708 1.7332935 22.016001
0.66425514 -4.4625902 1.749498 21.952002
0.74975318 -4.4595928 1.7533978 21.979429
0.8467896 -4.4675622 1.7626675 21.845335
0.94665891 -4.4734311 1.7721364 21.723429
1.0075824 -4.4543161 1.7699935 21.247999
1.0818334 -4.3301959 1.7314445 20.352001
1.1738715 -4.3153839 1.7347586 20.992001
1.237608 -4.3043709 1.7372006 20.736
1.3923135 -4.3179393 1.7588301 20.736
1.4506689 -4.3361716 1.7720866 20.437334
1.5144225 -4.3157101 1.7725519 20.650667
1.6606554 -4.3091526 1.7890645 20.736
6.0396948 -4.3542781 1.7094277 17.664
1.3193412 -4.2780647 1.736503 20.224001
1.5669744 -4.289011 1.7698191 20.736
1.6461825 -4.2813072 1.777494 20.48
4.764729 -4.7098608 1.8996435 14.592
4.7851577 -4.6700077 1.8813223 18.005333
4.866312 -4.6739101 1.8765652 18.816
4.9408708 -4.6404243 1.8553915 19.558399
5.0508537 -4.6087503 1.8362031 19.392
5.3613429 -4.6018429 1.8201113 18.944
2.8600895 -4.5074191 1.8970515 21.504
2.9313929 -4.5182705 1.8979799 21.162666
5.1442146 -4.5895362 1.8282245 18.944
2.7465239 -4.4959574 1.8942726 20.864
2.8336029 -4.4922857 1.8931367 21.375999
3.0786591 -4.4590869 1.869791 20.608
3.1752701 -4.4303818 1.8595659 20.48
3.2801299 -4.4404182 1.8567171 20.224001
3.3011711 -4.4243984 1.8495985 19.968
3.4561193 -4.4513364 1.8534068 20.309334
3.5882072 -4.4576321 1.8471521 19.84
3.6377952 -4.4750996 1.8513551 19.712
2.080694 -4.7127719 1.9876821 6.6560001
2.0754399 -4.6207294 1.9555869 6.1440001
2.9801431 -4.5297723 1.9010215 20.736
4.8424091 -5.005651 2.0295308 10.496
4.7382832 -4.9294367 2.0050859 12.8
2.192878 -4.8202481 2.0366461 7.4239998
4.8122864 4.1842928 2.2781081 18.816
4.5436087 4.2672787 2.2605245 18.176001
4.6140137 4.2577968 2.2709599 18.175999
4.7519507 4.2259607 2.2810497 18.944
4.8083138 4.2214518 2.2910337 18.944
4.4517121 4.3445673 2.2699502 18.841602
4.5334797 4.3125873 2.2742777 18.432001
4.6184716 4.3098998 2.2845237 18.176001
0.54479784 4.4500623 2.2919178 21.056
0.69355547 4.4748955 2.2872181 20.736
0.73850828 4.4806666 2.2859621 20.351999
0.82907277 4.491817 2.2826979 20.224001
0.94189984 4.4844995 2.267375 19.882668
4.4437723 4.4207602 2.2998362 19.968
0.76460564 4.5044417 2.2940798 20.48
0.85516882 4.5195007 2.2916508 19.865599
0.94165653 4.5072455 2.2795117 20.053335
1.0739765 4.545167 2.2850194 20.288
1.154296 4.5577655 2.2825937 19.968
1.2500235 4.5661426 2.2764776 20.266666
1.3321275 4.5779099 2.2743731 20.799999
6.7242546 3.1601715 2.3878479 19.968
-0.14772765 4.4546943 2.3868115 21.077333
0.52776563 4.4894609 2.3135047 20.864
0.68290454 4.5011463 2.3034644 20.992001
3.2769282 4.7951941 2.3597386 19.200001
3.3351977 4.7653346 2.3528557 19.455999
3.2442136 4.8463926 2.3782957 19.52
3.3407631 4.8274989 2.3775656 19.285334
3.547199 4.8019814 2.3761554 19.200001
6.7353811 3.2578468 2.4172277 20.032001
6.7656245 3.3663113 2.4529335 19.882668
6.7529817 3.4411991 2.4727886 20.053335
6.7459974 3.5057142 2.4919355 19.712
6.7551031 3.5654807 2.5162609 19.84
6.7847137 3.6787148 2.5482635 19.84
6.8030505 3.6325955 2.5431647 19.968
6.7671552 3.7489192 2.5640008 19.797333
6.8022017 3.7872312 2.5798473 19.968
6.7745628 3.8430729 2.5941024 19.712
6.7895055 3.9816301 2.6340826 19.455999
6.773736 4.0601254 2.6527734 19.968
6.8083467 4.0514526 2.6543212 19.584
6.7993355 4.1645842 2.6810114 19.968
6.8142314 4.143826 2.6816339 19.455999
6.7983193 4.2239375 2.6977327 19.712
6.8199649 4.2072439 2.694082 19.712
2.9469743 5.5778742 2.6979685 21.247999
6.792675 4.2808347 2.7197254 19.968
6.8426638 4.2818532 2.72701 19.712
6.8184819 4.358263 2.740618 19.797333
6.8171005 4.4500346 2.7612941 19.626665
6.8205781 4.5460563 2.7890294 19.626665
2.3974819 5.5989313 2.7120397 20.992001
2.414706 5.5897322 2.7057776 20.992001
2.5140376 5.5733767 2.7055364 20.992001
2.6605406 5.5856872 2.7032106 20.992001
2.7380085 5.5788879 2.7037227 20.992001
2.8095427 5.5849795 2.7025497 21.119999
2.9324853 5.5936465 2.7066603 20.736
3.2188981 5.5855441 2.7092123 21.375999
4.3758807 5.5440574 2.7548149 20.736
4.4446206 5.5668321 2.7684684 20.096001
2.3773544 5.6013184 2.7151167 20.48
2.4638534 5.6048055 2.7165482 21.077333
2.5078404 5.607368 2.7178075 20.992001
2.6478741 5.6166048 2.7184396 20.992001
2.7696857 5.6057806 2.7198577 20.736
2.9157922 5.6052847 2.7134345 20.736
3.1645312 5.6149483 2.7230902 21.119999
3.2016065 5.6176524 2.722887 20.992001
6.8174911 4.8984923 2.8905187 19.200001
6.7209687 4.9440136 2.8756678 18.517332
6.8010368 4.9196944 2.8901999 18.944
0.37797049 5.5913272 2.8997498 19.712
1.9954363 5.7451806 2.8086202 22.016001
2.0265584 5.7751827 2.8203495 21.504
4.9526958 5.7654419 2.895988 19.584
5.241818 5.7399702 2.8958678 19.200001
2.2723267 5.924562 2.8805878 20.991999
2.3220911 5.9126511 2.8749022 20.992001
6.7253642 5.0138092 2.9027562 18.431999
0.064219087 5.5407081 2.9125423 19.968
0.15066722 5.5729384 2.9218769 19.882668
0.24247004 5.566474 2.9049163 19.84
0.33348602 5.597343 2.9067564 19.712
0.21718213 5.6032395 2.9284923 19.712
0.35862434 5.6159234 2.9133575 19.882668
5.0303311 5.7993526 2.9143386 19.200001
-0.10245113 -0.0026160004 0.015659206 22.528
-0.020070819 -0.068965092 0.020908467 22.016001
0.041133072 -0.046412442 0.027822334 22.271999
0.12418994 -0.035606105 0.0086969659 22.016001
-0.14705077 0.053581163 0.0011078045 23.296
0 0 0.069999717 22.433472
-0.1387421 0.11634239 0.0051839463 23.466667
-0.087418467 0.18021214 0.0161491 22.656
0.074599676 0.25831741 0.037259612 18.005335
0.13564543 0.42066881 0.018395174 10.752
2.1521871 1.8738018 0.02951316 21.439999
2.2811356 1.8435138 0.050873995 21.247999
2.4322481 1.8650453 0.068824179 19.968
1.047069 0.045139249 0.17203026 23.210665
0.79043406 0.1545265 0.12818205 23.296
0.81052768 0.15845299 0.1293425 23.296
1.733111 0.54880297 0.17600735 23.149715
1.7430929 0.62885457 0.16747022 23.040001
1.747517 0.72390431 0.15714662 22.869333
1.7187952 0.85738176 0.13855058 22.442667
1.6931152 0.94123793 0.12723333 22.271999
1.7139437 0.929735 0.12985098 22.2208
1.6886345 1.073858 0.10607757 22.144001
1.7143874 1.0902101 0.10663255 21.76
1.6605482 0.19697541 0.20951352 23.296
1.6543033 0.20425883 0.20714065 23.296
-0.26119825 0.029950494 0.093967348 22.784
7.2097551e-05 0.00013817303 0.069961287 23.133139
-0.41193166 0.169792 0.091028914 23.68
-0.39206553 0.1060887 0.096054353 23.296
0.014631029 0.17666057 0.038743328 22.528
0.14110023 0.15687551 0.011333153 22.784
-0.41532573 0.24752845 0.082711831 23.850668
-0.40462384 0.34647325 0.066705346 23.808001
-0.39744788 0.38972521 0.057990961 23.6544
-0.3793003 0.44300139 0.046213713 23.296
-0.37468734 0.51269412 0.034643672 23.296
-0.37964013 0.64717299 0.019557618 23.552
-0.3711873 0.7518388 0.0081892787 23.500801
-0.44696081 -0.35631433 0.19908211 23.808001
-0.44383895 -0.24501438 0.17380951 23.808001
-0.44445631 -0.15285975 0.15321733 24.063997
-0.44029522 -0.072481297 0.13387933 24.063997
-0.26924747 -0.0032245752 0.10060062 21.76
-0.46939683 -0.64014155 0.29104233 23.296
-0.45728067 -0.54668707 0.25760746 23.296
-0.031896684 -0.55044961 0.27428377 23.296
0.0016018153 -0.5732584 0.28992802 23.552
-0.45466408 -0.43093523 0.21938166 23.552
-0.45502996 -0.39855561 0.21050689 23.808001
0.95894289 -0.012262525 0.78092742 22.8864
1.0647389 -0.12381879 0.86122233 22.698668
-0.54176772 -2.6296263 0.99274367 22.912001
-0.48727563 -2.6179214 0.99204928 22.528
-0.48253658 -2.5923576 0.98304683 22.528
0.35146686 -4.4149356 1.8465891 21.888
0.44120184 -4.4165707 1.866498 22.016001
0.53368264 -4.4206238 1.8909351 22.08
0.34885433 -4.3822789 1.8343984 22.016001
0.44831342 -4.3885727 1.8563355 22.016001
0.5415771 -4.3971076 1.8857317 21.888
0.58755094 -4.4208369 1.903759 22.016001
0.64520496 -4.4212246 1.9192652 21.942858
0.74950594 -4.4270201 1.949723 21.759998
0.81313664 -4.427556 1.96962 21.76
1.0902333 -4.2363472 1.9795238 20.736
0.99291462 -4.4412084 2.0275252 21.504
1.035646 -4.4725323 2.0489373 20.992001
1.2773261 -4.2524891 2.0458841 20.415998
1.3510433 -4.226872 2.0641057 21.247999
1.4178932 -4.2481208 2.0949128 21.247999
1.4611241 -4.2639332 2.1142123 20.992001
1.522897 -4.2658134 2.1336994 21.184
1.6330186 -4.2752886 2.1774449 20.864
1.6856318 -4.3045435 2.207334 21.247999
1.6937648 -4.2849545 2.2045743 20.736
1.7111382 -4.2887945 2.2091982 20.992001
1.9468735 -4.4796419 2.3667932 21.540571
2.0295217 -4.4542971 2.3880444 21.504
2.0353749 -4.505219 2.4065087 21.504
2.1971641 -4.5129809 2.4753747 21.504
2.0695801 -4.4664068 2.4104359 21.333334
2.1691399 -4.4644308 2.4462481 21.247999
2.2493799 -4.4918828 2.4850023 21.504
2.7369914 -3.9330971 2.4941537 20.736
2.7628236 -3.7239532 2.4416175 20.736
2.8156562 -3.707849 2.4613791 20.48
2.7829313 -3.6891589 2.4391019 20.992001
2.8247285 -3.6469197 2.4438879 20.736
2.8705261 -3.527983 2.4326904 20.650667
2.9080355 -3.5278084 2.449414 20.992001
2.8994355 -3.4945788 2.4376636 20.48
2.937963 -3.4472921 2.4450428 20.809143
2.9623802 -3.35799 2.4355927 20.736
3.0164497 -3.3215635 2.4549651 20.906668
3.0262623 -3.2482054 2.444402 20.650667
3.056941 -3.177664 2.44715 21.162666
3.0846033 -3.0711365 2.4458303 20.928001
3.1096301 -3.0519245 2.4557528 20.864
3.0909302 -2.9854035 2.4358811 20.992001
3.1303241 -2.9377501 2.4514534 20.821333
3.1662896 -2.8795753 2.4628336 21.2992
3.2051959 -2.8575358 2.4858813 21.632
3.2679226 -1.0690445 2.4809196 21.6576
3.2578278 -0.9630174 2.4792933 21.613712
3.2446017 -0.82804644 2.4765763 21.695999
3.2358265 -0.75209302 2.4746473 21.589333
3.2466576 -0.64506292 2.4834673 21.76
3.2351596 -0.56353724 2.479367 21.613712
2.3180425 -4.5026574 2.5112376 21.504
2.4670923 -4.5054836 2.5704744 21.247999
2.5166354 -4.5101252 2.5939407 21.375999
2.358773 -4.4897132 2.5263157 21.350399
2.4190826 -4.4855819 2.5483882 21.375999
2.5368168 -4.4899135 2.5934339 21.247999
2.705914 -4.2849832 2.5949147 20.736
2.7129736 -4.020627 2.5144773 20.608
2.7261133 -3.9713631 2.5054104 20.821333
2.6611891 -4.5117369 2.6522133 21.632
2.6825631 -4.4661942 2.6407993 21.418665
2.7055449 -4.4398766 2.640511 20.992001
3.8342111 -3.0415981 2.9157035 21.589333
3.8598943 -2.9529524 2.9235249 21.247999
3.9216213 -2.9021697 2.9620833 21.119999
3.9409089 -2.8491058 2.9678807 20.864
3.9572554 -2.6725476 2.9671333 20.991999
3.9662089 -2.5514538 2.9693239 20.787199
3.9681156 -2.4289429 2.9681265 21.077333
3.9876246 -2.3029647 2.9794695 20.992001
3.9738081 -2.2612946 2.9719064 21.247999
3.9652073 -2.1322978 2.9619489 21.248001
3.9708714 -2.0640113 2.96823 21.043201
3.960654 -1.9223642 2.9664869 21.333334
3.9488261 -1.8701268 2.9589515 21.247999
3.9173069 -1.7791901 2.9385235 21.504
-0.20420872 -0.80229586 0.055708151 23.552
-0.19440457 -0.80109632 0.054187346 23.552
-0.20516497 -0.79019296 0.056847505 23.552
-0.19286951 -0.79475987 0.054155923 23.487999
0.053933281 -0.74885345 0.0098708868 23.768616
-0.23733851 -0.63188297 0.074401744 23.040001
-0.24495682 -0.59121108 0.078101248 23.296
-0.18537478 -0.58219463 0.067421883 23.552
-0.23390092 -0.4466165 0.084307857 23.552
-0.043176711 -0.41980708 0.049911559 23.808001
-0.25590897 -0.38641727 0.090552807 23.381332
0 0 0.069999725 22.803444
-0.44741163 -0.42498028 0.11775792 23.615999
-0.38834041 -0.43449101 0.10827931 24.063999
-0.44462478 -0.327833 0.12673706 23.808001
-0.43935338 -0.24725211 0.13522485 23.893333
-0.44459909 -0.13750079 0.14783813 24.063997
-0.44109866 -0.06236076 0.15398838 24.027426
-0.28445715 0.050254036 0.14997032 23.296001
-0.27812052 0.14930303 0.18519039 23.040001
-0.28264356 0.23113064 0.20825207 23.040001
-0.2760269 0.35340917 0.23968908 23.296
-0.27066353 0.47227609 0.27596256 23.040001
-0.38486809 0.89637148 0.450268 23.040001
0.64944351 0.081198066 0.555197 23.424
0.64712155 0.10463391 0.55594134 23.296
3.1189935 0.98626453 2.4949427 21.76
3.0714977 1.0677372 2.4806502 21.696001
3.1098137 1.032702 2.4991112 21.504
3.0271933 1.1316684 2.4817386 21.833143
-0.13167122 4.0742249 2.434972 21.311998
-0.17915533 4.11869 2.434741 21.418665
3.1879978 0.86444074 2.5186639 21.504
3.2058451 0.82828599 2.5245695 21.439999
3.1579161 0.94341916 2.5132713 21.617777
3.129287 1.0188807 2.5096321 21.504
3.0251648 1.1810151 2.5110366 21.845335
3.0189722 1.2439691 2.5474429 21.76
3.021194 1.3214965 2.5978203 21.76
3.0295691 1.3604703 2.6279914 21.708799
3.0331211 1.423023 2.6760612 21.6576
3.0294724 1.4686955 2.7045338 21.418665
3.0302873 1.5536602 2.7695327 21.452799
3.0402632 1.5956532 2.8038638 21.247999
3.0409133 1.6522013 2.8457718 21.152
3.0269361 1.707584 2.8787847 20.992001
3.0509865 1.7793921 2.9447401 21.119999
3.0486827 1.8173616 2.9701772 21.120001
0.56350929 4.2968283 2.9979048 20.992001
0.53855705 4.3201876 2.9968495 20.48
0.41158238 4.4553294 2.9939802 20.224001
0.2975263 4.5707946 2.9936404 20.48
0.3116287 4.5628204 2.9990473 20.736
0.18470693 4.676156 2.9917703 20.48
0.20673344 4.6673474 2.9968238 20.224001
0.051340934 4.7789598 2.9679527 20.736
0.14133266 4.7263088 2.9899633 20.684801
3.0463998 1.8757938 3.0139942 21.145599
2.951061 1.9653673 3.0289881 20.906668
3.0298309 1.9193414 3.0352609 21.333334
2.9268017 2.0013268 3.0428185 20.736
1.5404142 3.2625046 3.0519879 20.5312
1.453626 3.3679938 3.0571477 20.553143
1.3740666 3.452719 3.051558 20.736002
1.4135891 3.4194534 3.0580828 20.736
1.2593567 3.5674365 3.0398705 20.77257
1.3259667 3.518369 3.0562484 20.735998
1.1733541 3.6749423 3.0472381 20.864
1.2243536 3.6145227 3.046875 20.736
1.0763031 3.7835126 3.0401187 20.992001
1.1154714 3.7175393 3.0263944 20.992001
0.99120349 3.8814318 3.039634 20.906668
1.0376523 3.8330469 3.0421562 20.906668
0.9485119 3.9367456 3.0418398 20.672001
0.78437072 4.0911942 3.0191514 20.864
0.85326529 4.0324569 3.0334311 20.736002
0.6862855 4.1912107 3.0111425 20.992001
0.74304777 4.1438208 3.0222571 20.821333
0.57749742 4.2971139 3.0090392 20.736
0.64769572 4.2391095 3.0203288 20.821333
0.70283234 4.2080345 3.0342028 20.48
0.57411933 4.3244228 3.0222406 20.736
0.45527783 4.4396663 3.01597 20.821335
1.1316594 -0.35608435 0.0075974055 22.912001
1.0516571 -0.24027245 0.031870663 23.040001
-0.08331576 -0.13998514 0.0060653165 22.784
0.96360689 -0.1109278 0.062931292 23.381332
1.0113891 -0.19558643 0.042333297 23.167999
0.98158365 -0.02814544 0.081299804 23.264002
1.0220078 -0.078240022 0.070787594 23.167999
-0.027176268 0.057235673 0.025757214 21.888
0 0 0.069999717 22.435858
0.99985105 1.748195e-07 0.087260686 23.296
0 0 0.069999725 22.25518
0.98630989 0.0039192275 0.088539228 23.296
1.0128095 0.0048417845 0.089039147 23.296
1.7314199 0.53885072 0.18455954 23.113142
1.7290862 0.60740912 0.19603401 23.296
-0.25277781 -0.0078572156 0.22762504 20.48
-0.28458145 0.027740069 0.23654099 23.146669
-0.28182501 0.14288859 0.22700576 23.0912
-0.28296402 0.23388144 0.23652506 23.0912
-0.27260187 0.35348454 0.24915889 23.040001
-0.28032094 0.42232934 0.26603451 23.167999
-0.26315969 0.51942897 0.28121769 22.784
1.7436073 0.68206227 0.20994666 22.976
1.7322893 0.74531001 0.22201753 22.784002
1.6751283 0.97215712 0.26380485 21.76
1.7175908 1.0600451 0.28213993 21.504
-0.44068089 -0.13881221 0.38996169 23.808001
-0.43493655 -0.064529516 0.36140615 23.808001
0.87220204 1.5250065e-07 0.38102975 20.48
1.6680919 1.1706614 0.30797324 15.872
-0.45731306 -0.41043249 0.49694219 23.424
-0.45386553 -0.35588318 0.47100896 23.500799
0.98526496 -0.36742389 0.48642963 13.312
1.0722646 -0.33428052 0.49040392 22.869333
-0.44264543 -0.24670559 0.42224276 23.608891
0.9921788 -0.18224788 0.42973313 23.296
1.0198919 -0.057088342 0.43443552 23.039999
-0.4652718 -0.55424052 0.57773578 23.552
-0.45770317 -0.42008355 0.50164956 23.488001
1.0962188 -0.40284169 0.52939922 17.408001
1.0980035 -0.39557227 0.52598214 21.76
-0.49991077 -0.81801003 0.79674459 22.784
-0.49201873 -0.74339175 0.73537415 23.040001
0.078895643 3.8826694 1.1980915 21.504
0.16589503 3.8897309 1.1783185 21.375999
0.20850673 3.8732815 1.1613517 21.504
0.13777471 3.912878 1.1921659 21.504
6.9937887 5.2658172 1.1466285 19.584
6.7280231 5.3924074 1.184127 19.200001
6.8687387 5.3981471 1.1852047 19.455999
6.9596958 5.3452401 1.1663195 19.584
6.742599 5.427609 1.1929495 19.370667
6.8329358 5.4053249 1.1889774 18.688
6.9194217 5.4023962 1.183789 19.455999
-0.02015397 3.8940988 1.225534 21.504
0.037761629 3.8953629 1.2124286 21.333334
-0.14578323 3.9318106 1.2716433 22.125715
-0.065953575 3.9124258 1.2447792 21.418665
0.048407555 3.9242768 1.2174349 21.375999
0.10445728 3.9126248 1.2004559 21.247999
6.7063055 5.4811254 1.2026721 19.455999
6.699667 5.5473032 1.221077 18.944
6.7003818 5.5119953 1.211403 19.455999
6.6772394 5.6008549 1.2369435 19.455999
6.72087 5.6010594 1.2346107 18.944
6.7234468 5.7872148 1.285538 19.200001
6.7095037 5.8125415 1.2932998 18.944
3.0731654 5.5835314 1.3966253 20.736
3.1318705 5.5912681 1.3954245 21.077333
3.2554755 5.5938411 1.39519 20.864
3.3305283 5.5787902 1.3912479 20.906668
3.4055333 5.5825043 1.3841109 20.992001
3.5662515 5.575809 1.3807164 20.906668
3.6603947 5.591341 1.3810062 20.821333
3.7516251 5.5742292 1.3731251 20.6336
3.8479092 5.5439668 1.3634194 20.906666
3.9583261 5.5693517 1.3668876 20.48
4.0653229 5.5683079 1.3594389 20.543999
4.2481422 5.5541363 1.3458844 20.543999
4.3415952 5.5470462 1.3436656 20.394667
3.0595787 5.6010294 1.3984593 20.992001
3.152864 5.6008916 1.3975654 20.992001
3.2021236 5.604527 1.3980758 20.992001
3.3953269 5.6058807 1.3922921 20.736
3.5504088 5.6166658 1.392055 20.864
6.7327766 5.8892336 1.3131416 19.455999
6.1477461 6.0916729 1.3982586 18.944
6.4746761 6.0964556 1.3860162 19.200001
6.5460358 6.0853982 1.3785986 19.200001
6.6490831 6.0830946 1.3682771 19.392
6.7385535 6.0670972 1.3549838 19.455999
6.2237539 6.1082878 1.3946642 19.327999
6.4516234 6.113657 1.3852843 19.200001
6.5424895 6.121088 1.3888052 19.200001
2.9990952 5.5958219 1.4016813 20.992001
2.3769395 5.6538072 1.4155011 20.608002
2.4448299 5.6383772 1.416271 21.0944
2.5487461 5.630517 1.4119986 21.0944
2.653254 5.6210675 1.4106677 20.992001
2.7526355 5.6213541 1.4089576 21.196798
2.8447335 5.6267447 1.4076351 20.991999
2.9462731 5.6300573 1.4099798 20.992001
3.0366821 5.6228771 1.405298 20.992001
5.2798271 6.1786547 1.4613082 19.712
5.3604121 6.1727271 1.457716 19.626667
5.4572849 6.1508865 1.4506135 19.370667
5.5644298 6.1456094 1.4467115 19.626665
5.6587667 6.1506367 1.4381291 19.327999
5.7579885 6.1592698 1.4369401 19.370667
5.8501267 6.1390629 1.4247805 19.285334
5.9515138 6.1271453 1.4144965 19.285334
6.1303773 6.1133056 1.4055073 19.200001
1.1554513 6.3617029 1.687371 17.152
1.3224233 6.4580908 1.686769 16.896
1.3312873 6.5014195 1.6976092 16.128
1.0771831 6.3932614 1.7076354 19.200001
0.75529122 6.4409347 1.7837017 20.992001
0.85284579 6.4305558 1.7637186 21.043201
0.95726949 6.4297423 1.7417567 20.5312
1.0425893 6.4383087 1.7281002 19.626665
1.2842388 6.4816027 1.7013175 16.384001
1.2678452 6.5075798 1.7068303 16.639999
1.5394778 6.674963 1.719461 15.872
1.6949662 6.7792168 1.7327696 16.384001
1.7203867 6.7888684 1.7364733 16.128
1.7617726 6.8152399 1.7392917 16.384001
1.8489304 6.8366842 1.7391821 16.383999
2.0311997 6.8963742 1.7457601 16.896
2.1401186 6.8864169 1.7314787 16.384001
2.3348255 6.8643208 1.7248887 16.896
2.0557749 6.9254894 1.7500124 16.298668
2.1723652 6.9253368 1.7412567 16.896
2.3335533 6.9086132 1.734383 17.066668
0.5735544 6.4393559 1.8275325 20.864
0.64779502 6.4558249 1.8162552 20.940802
0.7333802 6.4774532 1.8019861 20.736
-0.56543523 -2.9393928 2.4911618 21.811201
2.795532 -2.761219 2.4981332 21.76
2.8393166 -2.7468698 2.4935279 21.504
2.9634743 -2.7306039 2.4912689 21.247999
3.0184858 -2.7176971 2.4861717 20.992001
3.0579224 -2.6918283 2.4702187 20.992001
-0.547032 -2.958185 2.5032678 21.76
-0.48036861 -2.9813855 2.5125437 21.375999
2.7903934 -2.8364079 2.5669556 21.504
2.815443 -2.8437109 2.5748439 21.504
2.7996006 -2.7829363 2.5219502 21.375999
2.8674226 -2.7607656 2.504514 21.375999
2.7925732 -2.9872112 2.6889381 21.247999
2.7826993 -3.1130393 2.7986834 20.992001
2.7822587 -3.0437171 2.7417586 21.333334
2.7659771 -3.2368467 2.8992646 20.992001
2.7698619 -3.1387272 2.8194544 21.162666
6.3899283 -2.5703216 2.8835142 20.736
6.4116368 -2.5632696 2.8845327 20.309334
1.6658082 -3.3344204 2.959183 21.247999
2.2772582 -3.3147995 2.9473643 20.992001
2.7605622 -3.3367305 2.9862247 20.992001
0.95968384 -3.2583408 2.9091108 21.247999
2.7574751 -3.2477965 2.9058545 20.992001
6.392766 -2.6546931 2.9348857 20.608
6.4324498 -2.6351821 2.9282603 20.48
-0.44264606 -3.6367707 3.0391202 21.056
-0.35253814 -3.6600277 3.0581446 20.832001
-0.25540239 -3.6470516 3.050441 20.832001
-0.15289436 -3.6357443 3.0489681 20.764444
-0.050621208 -3.6263332 3.0533519 20.672001
0.043697551 -3.6134861 3.0554352 20.608
0.14532742 -3.6100688 3.0676773 20.48
0.24573486 -3.601676 3.0733247 20.48
-0.024267143 -3.5870528 3.0241392 20.736
0.084057316 -3.576685 3.0348082 20.864
0.15998857 -3.5899048 3.0530944 20.531199
0.23734649 -3.5801368 3.0531621 20.582401
0.46133766 -3.5658538 3.068785 20.275202
0.56284964 -3.5470567 3.071914 20.406857
0.65080225 -3.5350699 3.0744905 20.576
0.74806768 -3.5172236 3.0756929 20.576
0.80439067 -3.5003829 3.0720055 20.736
0.75710601 -3.498354 3.0617442 20.48
0.85212862 -3.4787955 3.0636683 20.352001
0.9209078 -3.478399 3.0775635 20.309334
1.1180137 -3.4421742 3.0950928 20.565332
1.5911932 -3.4709206 3.0815692 20.736
1.6224533 -3.4658387 3.0771873 20.736
1.8569361 -3.4712622 3.0830185 20.821333
2.0617204 -3.4659576 3.0799417 20.672001
2.1438403 -3.4642756 3.0769458 20.77257
2.2201226 -3.4631405 3.0789177 20.821333
2.4764156 -3.4609888 3.0754986 20.736
2.5506063 -3.4699025 3.0891304 20.736
2.6399119 -3.4588909 3.0800431 20.906668
2.7446582 -3.4385364 3.0655689 21.375999
2.7646914 -3.3744464 3.0124774 21.248001
4.0527434 -3.2748013 3.0146549 20.223999
4.1465392 -3.2779541 3.0272727 20.121601
4.2933416 -3.2540624 3.0251808 20.48
4.4701939 -3.2444968 3.0423326 20.352001
4.5502405 -3.2254696 3.035568 19.84
4.7431931 -3.2059879 3.0495765 19.712
4.592833 -3.1904035 3.0187109 19.712
4.7748213 -3.1941762 3.0485983 19.84
4.8616109 -3.1742473 3.0432484 19.763201
5.1751747 -3.125983 3.0495179 19.455999
5.2005024 -3.0962429 3.0334735 19.455999
5.5252471 -3.0324314 3.0389693 19.199999
5.5347757 -2.9919701 3.0082824 19.200001
5.7415328 -2.9864776 3.0381286 19.370667
5.8575182 -2.9642489 3.0412731 19.327999
5.9548016 -2.9363885 3.0413227 18.944
6.0432377 -2.9144287 3.0417395 18.944
6.093874 -2.8911972 3.0328312 19.200001
6.2718577 -2.85409 3.0402825 19.285334
6.4376526 -2.7822282 3.0294569 20.736
0.93549198 -3.5033967 3.1008646 20.224001
1.0929015 -3.4647698 3.1066365 20.736
1.1662291 -3.4586475 3.1208525 20.650667
1.2597768 -3.4354897 3.1285694 20.735998
1.3937185 -3.4214599 3.1579421 20.736
1.4066565 -3.4219689 3.1624312 20.992001
2.6984775 -3.4818907 3.100687 20.992001
1.3323252 -3.3939531 3.1175389 20.736
1.4411429 -3.3825824 3.1431916 20.992001
-0.16635638 0.051084213 0.043973669 23.296
0 0 0.069999725 22.615242
-0.19309305 0.12350024 0.045826793 23.893333
-0.39323819 0.38289288 0.028246958 23.552
-0.40211454 0.416361 0.029463938 23.722666
-0.3985343 0.41806662 0.030063776 23.808001
-0.37238008 0.59608507 0.058654007 23.552
-0.37543803 0.78141844 0.080974661 23.296
-0.17343283 1.4497271 0.17680208 22.954666
-0.094881564 2.2963479 0.25820091 23.552
-0.070086002 2.3277779 0.26432225 22.656
0.66471004 0.055040803 0.33048615 23.571693
0.66819012 0.16253595 0.33952555 23.505455
0.66570431 0.24717917 0.34688103 22.983112
0.69506389 0.33123493 0.34323719 11.52
0.079157367 2.8415692 0.32036734 21.567999
0.12250943 2.8548007 0.32441294 21.440001
0.58955687 6.3817983 0.65921253 20.992001
0.67310429 6.3976402 0.67137253 21.504
0.75450307 6.3898444 0.67814404 21.418665
0.83691353 6.3893833 0.68736851 20.736
0.56688464 6.414341 0.66200483 21.119999
0.64966667 6.4201221 0.67199457 21.247999
0.75715655 6.4125662 0.68112844 21.119999
0.86212987 6.423193 0.69089711 20.096001
0.91532928 6.4319592 0.69745475 18.559999
1.0242051 6.394197 0.70378178 19.541334
1.1081934 6.3970442 0.71211016 20.48
1.2217938 6.3872042 0.7257663 20.48
1.3582137 6.3833189 0.73695838 18.368
1.4600686 6.3635383 0.74778146 17.92
1.5686867 6.3710699 0.7596274 17.92
1.6488117 6.3687801 0.77039587 17.92
1.7374301 6.3693924 0.78098994 17.749334
1.834733 6.3536363 0.79382199 17.7152
1.9049058 6.3682809 0.79958689 17.664
0.96740967 6.4315453 0.70318216 18.346666
1.0779095 6.4034662 0.709719 20.352001
1.1633719 6.4123588 0.72086978 20.48
1.2824833 6.4272957 0.73344672 20.352001
1.3131613 6.4216137 0.73349702 19.712
1.4179162 6.4132566 0.74760354 17.152
1.5356028 6.4118538 0.7629723 18.048
1.638358 6.4335566 0.77292597 17.92
1.762347 6.4072561 0.78906417 17.664
2.4348812 5.5813837 0.85683447 20.992001
2.55582 5.5783734 0.87962222 20.48
2.6304028 5.5650926 0.89900124 20.224001
2.3759079 5.6239719 0.84301496 21.162666
2.4387407 5.6224117 0.8603161 21.247999
2.5226507 5.6114311 0.87218493 20.736
2.6281264 5.6063027 0.89905667 20.736
2.242187 6.2772961 0.848248 17.664
1.933007 6.333971 0.80458033 17.535999
2.0803542 6.3273077 0.83210909 17.664
2.1496198 6.344799 0.83826011 17.664
2.2396393 6.3495808 0.85349667 17.727999
2.3040493 6.3233776 0.86622918 17.408001
2.0708408 6.4010544 0.83456391 17.152
2.6802988 5.5786381 0.90837771 20.480001
2.7523043 5.5690045 0.92604566 20.48
2.8654778 5.5516891 0.95537311 20.224001
2.9334157 5.5526886 0.97309941 20.394667
3.0330763 5.5689931 0.99846321 19.968
3.0655446 5.5653572 1.0102315 20.096001
3.1384687 5.5098424 1.0282414 19.200001
3.2692237 5.5735188 1.066752 20.224001
3.3287587 5.5932035 1.0817186 20.864
3.3410666 5.6139684 1.082894 20.992001
3.4524002 5.5768199 1.1230448 20.736
3.5463016 5.5758362 1.1534573 20.736
3.6385965 5.5764141 1.183598 20.864
3.3871949 5.6100688 1.101503 20.736
3.4143367 5.6146379 1.1094986 20.736
3.5832536 5.6076427 1.1698475 20.736
3.678061 5.578629 1.2007051 20.736
3.7333822 5.5658598 1.2199682 20.864
3.8527737 5.5699401 1.2610129 20.5312
3.9418087 5.5655041 1.2968456 20.48
3.9883697 5.574719 1.3111987 20.48
4.0610867 5.5634446 1.3424132 20.428799
4.1646066 5.5557323 1.3860573 20.480001
4.2458701 5.5530782 1.4227492 20.565332
4.3129816 5.5489559 1.4515028 20.352001
5.1667957 6.1685929 1.7642286 19.712
5.3513036 6.1864529 1.8426121 19.455999
5.4063492 6.1705232 1.8697872 19.712
5.5519972 6.176578 1.9304608 19.327999
5.6620603 6.1598954 1.9841852 19.200001
5.4841495 6.2193508 1.9024396 19.455999
5.7577567 6.1584935 2.0328944 19.114668
5.8440933 6.1587276 2.0696049 19.455999
5.9458404 6.1671157 2.110739 19.114668
6.0626693 6.1499243 2.1687233 19.264
6.2771974 6.1294026 2.2574589 19.712
6.3582616 6.1692257 2.2933106 18.944
6.5116806 5.7787933 2.3902736 19.200001
6.4961681 5.8392196 2.3835697 17.92
6.5277748 5.8302474 2.3954062 18.431999
6.4841852 6.0944839 2.3613572 19.200001
6.3634973 6.1351824 2.3027382 19.455999
6.5565786 6.1039047 2.3876336 18.816
6.6580801 5.4343472 2.4880638 19.200001
6.6842079 5.5447006 2.4919157 19.200001
6.7053361 5.652771 2.4940233 19.370667
6.6706648 5.7515659 2.4681225 19.327999
6.7315078 5.7483263 2.4947143 19.455999
6.7523274 5.0783491 2.5735543 19.712
6.7965174 5.2999845 2.5664465 19.712
6.8004155 5.2683721 2.5688732 19.200001
6.6978569 5.3962779 2.5113881 19.455999
6.7781291 5.3203554 2.5587232 19.455999
6.800384 5.3728218 2.5587473 18.944
6.7408943 5.4309101 2.5235083 19.584
6.8013277 5.4087462 2.5581536 19.200001
6.6950374 5.5000381 2.5006473 18.944
6.7009964 3.3782103 2.6942794 19.712
6.7149906 3.4491129 2.6936579 20.16
6.7206573 3.5503662 2.6888053 20.053335
6.7367492 3.6414068 2.6887763 19.968
6.7339382 3.7372429 2.6822543 20.224001
6.7284231 3.8468275 2.6723692 19.775999
6.7388649 3.9528034 2.6660306 20.053335
6.7443185 4.0429139 2.658314 19.797333
6.7267995 4.1199536 2.6464398 19.882668
6.7751446 4.3445096 2.6544173 19.647999
6.7663383 4.4457564 2.6389465 19.712
6.7848897 4.5355167 2.6389072 19.584
6.7152462 3.338728 2.7022486 19.968
