# .PCD v0.7 - Point Cloud Data file format
VERSION 0.7
FIELDS x y z intensity
SIZE 4 4 4 4
TYPE F F F F
COUNT 1 1 1 1
WIDTH 1206
HEIGHT 1
VIEWPOINT 0 0 0 1 0 0 0
POINTS 1206
DATA ascii
6.6286077 0.84640062 2.6219559 20.1728
6.6462989 0.94531739 2.6543605 20.352001
6.653769 1.0326854 2.6858878 20.351999
5.7853642 1.7396252 2.613873 22.271999
3.2416763 3.5918372 2.6259665 19.968
3.2285838 3.6233563 2.6409013 20.352001
6.6526084 1.0867137 2.7036333 20.224001
6.6548104 1.1522667 2.7255065 20.3776
6.6707668 1.2571846 2.7623091 20.309334
6.7053165 1.2489053 2.7710855 20.224001
6.6838708 1.3219423 2.7893949 20.48
6.2679324 1.648421 2.7465417 19.455999
3.2537947 3.8687387 2.7752986 20.224001
3.2501004 3.9018855 2.7926431 20.48
6.6918335 1.3787724 2.8081448 20.223999
6.6648121 1.4506003 2.824297 19.647999
6.5766091 1.5565403 2.8247023 19.200001
6.6515131 1.5141975 2.8383241 19.200001
6.5519753 1.6123711 2.8323452 19.455999
5.7647548 2.4537659 2.837925 19.136
5.8269911 2.4529982 2.8587406 18.688
5.6541052 2.5619056 2.8394442 19.264
5.5625267 2.6457019 2.8418109 19.114668
5.6204696 2.6368251 2.85411 19.114668
5.4535561 2.7475858 2.842375 19.053715
5.5697074 2.7071698 2.8642855 19.200001
5.2854052 2.8768971 2.8410249 18.944
5.3454123 2.8437929 2.8457725 19.200001
5.4081035 2.8114929 2.8541214 19.200001
5.1759801 2.9792254 2.8479183 19.114668
5.2543697 2.9469943 2.8582182 19.455999
5.3094091 2.9118516 2.8640747 19.200001
5.0747757 3.0620584 2.8508959 19.200001
5.1440434 3.0373976 2.8617058 19.114668
4.9456329 3.148664 2.8543773 19.199999
4.6880832 3.2737048 2.8317435 19.200001
4.7762775 3.2458439 2.8428159 19.200001
4.8812261 3.216167 2.8629861 19.072001
4.5806303 3.3776989 2.8499184 19.52
4.6509504 3.3341129 2.8469691 19.507198
4.7056589 3.3082523 2.8482704 19.200001
4.4737573 3.4070487 2.8341033 19.712
4.5224609 3.4101925 2.8487272 19.584
3.2408564 3.9160035 2.8003232 20.224001
2.9644866 4.0980091 2.8799586 20.096001
3.0210891 4.08002 2.8726516 19.968
3.1617389 4.0719481 2.8810823 20.121601
3.2234137 4.0584025 2.8795364 20.309334
2.1252449 4.1604095 2.8978703 20.224001
2.2787719 4.1471767 2.8849452 20.096001
2.3890929 4.1583319 2.8930714 19.712
2.468533 4.1579332 2.8915381 19.84
2.5600271 4.1551261 2.8894043 19.968
2.6488431 4.1599193 2.8971987 19.968
2.7531066 4.1338072 2.8849444 19.9168
2.8441093 4.128377 2.8905172 19.84
2.934654 4.1184044 2.8896644 20.096001
3.0128999 4.1097455 2.8908429 19.712
3.1176565 4.1005082 2.8931057 19.968
0.058287892 3.861419 2.9535377 20.650667
0.1363591 3.8845189 2.961601 20.582401
0.22236118 3.8867357 2.9490128 20.48
0.16026103 3.9054058 2.9737663 20.309334
0.25930044 3.9147701 2.9668159 20.394667
0.34963742 3.9225361 2.9596488 20.48
0.44868189 3.9353492 2.9534099 20.370287
0.5509631 3.9519644 2.9498703 20.48
0.66515929 3.9629977 2.9380822 20.543999
0.74948967 3.991993 2.9470391 20.48
0.83286542 3.994122 2.9350457 20.48
0.76253891 4.0056577 2.9544086 20.565332
0.86377984 4.0083594 2.9367294 20.3776
0.95530111 4.0333648 2.941864 20.297144
1.0510064 4.0395026 2.9299049 20.394667
1.145383 4.0633268 2.931761 20.297144
1.2449392 4.0734677 2.9264734 20.266665
1.3758926 4.0883298 2.9197941 20.224001
1.2877194 4.1046262 2.9429336 19.968
1.3402703 4.1116714 2.9389863 20.288002
1.4259921 4.107296 2.9256268 20.352001
1.5462039 4.13309 2.9258928 20.224001
1.6434377 4.1501508 2.9260297 20.077715
1.7260091 4.1459389 2.918318 20.288002
1.8678219 4.1660562 2.9185495 20.1728
1.95408 4.1690722 2.9172528 20.428799
2.0015571 4.1598954 2.9080634 20.224001
2.1819932 4.1728787 2.9030991 20.096001
2.2495847 4.1719208 2.9019394 20.224001
2.3952887 4.1999297 2.9211314 19.712
2.5334022 4.1810088 2.9058373 20.053335
2.6599419 4.1676693 2.9043334 19.882668
2.7384863 4.1633992 2.9064691 20.224001
2.8835721 4.1504159 2.9056807 19.968
2.9269443 4.15627 2.912075 19.712
2.1739304 4.2061505 2.931005 19.968
0 0 0.069999717 21.938641
0 0 0.069999725 22.389299
1.3550653 2.9180899 0.008701561 21.930666
1.3627827 3.3730052 0.043485984 20.736
-0.30022225 -0.016211713 0.17956179 23.040001
-0.31572491 0.020446397 0.17821795 23.040001
-0.30644041 0.19390194 0.16544922 22.784
-0.28845656 0.1356256 0.16285738 23.040001
-0.30598277 0.23117532 0.16378097 22.954666
-0.29722911 0.20392571 0.16193351 22.912001
-0.30559549 0.36449137 0.16620082 22.869333
-0.30732879 0.49085441 0.17516989 22.784002
-0.29868227 0.45203838 0.17025594 22.784
-0.31069347 0.50790972 0.17734191 23.040001
0.024313126 1.5319645 0.18540969 22.784
0.84052902 3.2669466 0.16301201 21.686857
0.7682662 3.3281143 0.18705046 22.089144
0.81884587 3.3065529 0.17325878 21.504
1.8834528 6.3400221 0.1917955 17.535999
1.9504508 6.3433709 0.17604969 17.749334
2.0469615 6.3341794 0.15257248 17.450668
2.157115 6.3297458 0.12641516 17.664001
-0.50083482 -0.11730213 0.28104669 23.808001
-0.49124485 -0.13817474 0.28433996 23.731201
-0.48461598 -0.068892628 0.26048771 23.808001
-0.39962861 0.73741871 0.21391541 23.296
-0.40005198 0.86148012 0.22249421 23.040001
-0.39301383 0.87308186 0.22094004 22.954666
-0.37020203 1.2247635 0.23433068 22.528
-0.10564246 2.2942917 0.26516831 23.040001
-0.098581098 2.299742 0.26382589 23.040001
-0.21547861 2.3350136 0.28376642 22.869333
-0.18661566 2.3238647 0.27937701 22.848001
-0.087869398 2.3066552 0.26437128 22.784
0.21137764 2.8294246 0.25747377 21.76
0.68658012 3.3701906 0.2112519 22.186666
0.71856976 3.3543084 0.20296402 22.271997
0.65302503 3.738162 0.24917603 21.247999
-0.49550706 -0.41846654 0.39624298 23.296
-0.50131416 -0.30665892 0.34774882 23.296
-0.49533695 -0.33987993 0.36031538 23.296
-0.50106454 -0.25529885 0.32660896 23.424
-0.49533558 -0.22621219 0.31470323 23.552
-0.50858706 -0.55414224 0.46807849 23.040001
-0.50442278 -0.43708497 0.40766612 23.296
0.7528019 6.3818707 0.44263244 20.906668
0.85422611 6.3711281 0.42494249 20.736
0.9259125 6.3683758 0.41345072 20.736
0.7569114 6.4169817 0.44717002 20.736
-0.51954556 -0.72764277 0.57408035 22.656
-0.52089113 -0.64163691 0.52025694 22.869333
-0.55894542 -1.1460087 0.86198819 22.528
0.64652902 -3.2133198 2.3849013 21.833143
0.70168608 -3.2011406 2.384407 21.76
0.66227019 -3.1903372 2.371139 21.632
0.75198287 -3.177933 2.3763952 21.077332
0.84565079 -3.1717324 2.3883297 20.5312
0.94289339 -3.1287546 2.3779173 20.799999
1.027848 -3.1212344 2.3907526 21.76
0.97783828 -3.0927517 2.3607552 21.247999
1.010278 -3.0926037 2.3676777 21.504
2.569732 -0.80796933 2.3285799 20.736
2.5846744 -0.7559936 2.3280089 20.622221
2.6053755 -0.74707985 2.3425004 20.992001
-0.66150856 -3.3322916 2.4343367 21.439999
-0.58047426 -3.3542671 2.4506783 21.119999
0.8896668 -3.1981804 2.4144044 20.48
2.8508687 -0.51669216 2.499269 21.119999
2.8554032 -0.43523702 2.4917731 21.504
2.8564606 -0.38297832 2.486419 21.76
2.9377377 -0.32753307 2.4204128 21.394285
2.986824 -0.25650549 2.4238601 21.471998
3.0123329 -0.22342783 2.4312136 21.247999
3.0425756 -0.13747312 2.4158959 21.632
3.0729001 -0.078007773 2.413944 21.247999
3.1254966 -0.0099177854 2.4243028 21.504
3.1265182 5.4665782e-07 2.4213033 21.504
2.8655806 -0.70481789 2.5442436 21.504
2.8596323 -0.65278578 2.5294664 21.32114
2.8638124 -0.56300431 2.5172589 21.461334
2.8701878 -0.47176409 2.5089064 21.504
2.8334579 -1.3249649 2.6926596 20.992001
2.8527145 -1.2505462 2.6816571 20.832001
2.8519475 -1.1387104 2.6448579 21.145599
2.8606462 -1.0566701 2.6269646 20.960003
-0.024260692 -3.8320863 2.776391 23.68
0.061287578 -3.8623271 2.7980237 24.063999
-0.024106579 -3.798207 2.7524509 24.32
2.8182321 -1.6331117 2.7925515 20.736
2.8237169 -1.5569239 2.7682288 20.735998
2.8349879 -1.4445275 2.7378175 20.882288
2.8391635 -1.3669993 2.7121913 20.940802
0.22932486 -3.901823 2.8303282 23.040001
0.34661031 -3.9620247 2.8787854 23.040001
0.41636956 -3.9019239 2.8412888 23.040001
0.27638504 -3.8643782 2.8060999 23.552
0.4149121 -3.8880949 2.8314822 23.424
2.8066688 -1.9126306 2.8977909 20.736
2.8151267 -1.8459829 2.8750901 20.650665
2.7953162 -1.7099228 2.8046291 20.736
2.8077028 -1.73594 2.8248119 20.736
2.8298512 -1.6578555 2.8113098 20.736
2.8505652 -1.5919396 2.8032341 20.736
-0.5312506 -4.1107783 2.9878032 20.821333
-0.44848052 -4.1281843 2.9969137 20.787201
-0.31423062 -4.1179471 2.9866607 20.736
-0.23553908 -4.1191058 2.9837763 20.48
-0.17052588 -4.1313014 2.9901216 20.736
1.4412193 -3.8512423 2.9741619 20.821333
1.5329376 -3.8320332 2.9848337 20.650667
1.5819061 -3.7766433 2.9617109 20.352001
1.6237737 -3.7425611 2.9546819 20.352001
1.7682842 -3.5536301 2.9623985 20.480001
1.8389499 -3.4322796 2.9588521 20.352001
1.866509 -3.3675132 2.9471149 20.096001
1.9213989 -3.3354709 2.9741433 20.582401
1.969492 -3.2468452 2.9667499 20.48
2.0210905 -3.2116957 2.9881456 20.48
2.0482228 -3.1487229 2.9782128 20.352001
2.0893493 -3.0870275 2.9800315 20.224001
2.1065111 -3.0598609 2.9784861 20.48
2.1660099 -2.9713068 2.9793875 20.351999
2.218858 -2.9348242 2.9994514 20.224001
2.2482028 -2.8588457 2.9818177 20.224001
2.3291147 -2.7491131 2.9844046 20.423109
2.3712049 -2.6757376 2.975467 20.352001
2.410197 -2.6345296 2.9826632 20.275202
2.4485404 -2.5639067 2.9737821 20.288
2.5085802 -2.5085771 2.9847741 20.352001
2.5422368 -2.4453192 2.9756818 20.32
2.5938969 -2.3882508 2.9805176 20.352001
2.6359079 -2.3433194 2.9870074 20.451555
2.6804516 -2.275399 2.9814591 20.582399
2.7209427 -2.2336271 2.9868741 20.889601
2.7656753 -2.1517005 2.9798589 20.940802
2.7943864 -2.064414 2.9581485 20.928001
2.805289 -2.0417027 2.9543118 20.799999
2.7930429 -1.9690933 2.9131176 20.736
2.815213 -1.9381319 2.9134374 20.736
-0.53505713 -4.1400037 3.0085254 20.608
-0.44671747 -4.1444821 3.0092285 20.650667
-0.35128489 -4.1544728 3.0145426 20.522667
-0.25274578 -4.1507263 3.006851 20.565332
-0.19130036 -4.1545086 3.0071397 20.352001
1.4946659 -3.8937404 3.0155041 20.48
2.0806472 -3.1489403 3.0047989 20.224001
2.2155836 -2.9499061 3.0028501 20.224001
2.2847695 -2.8490663 3.0053921 20.352001
2.7338769 -2.2499943 3.0018682 20.736
-0.48891953 -0.223197 0.014342847 23.808001
-0.48392367 -0.11465351 0.030565154 23.8592
-0.39472717 -0.1412302 0.031457718 23.808001
-0.48714796 -0.078364283 0.035482701 23.68
-0.32238749 0.059769779 0.069774956 23.68
0 0 0.069999725 22.371922
-0.30650017 0.12467378 0.082592472 23.040001
-0.29674739 0.16856493 0.092155196 23.040001
-0.30231121 0.24929453 0.11118427 22.784
-0.30793428 0.33404934 0.13171896 22.912001
-0.31145203 0.44879013 0.15598449 22.784
-0.3974686 0.86553812 0.23718721 22.784
-0.11591794 3.8940625 1.1677191 20.992001
-0.044667501 3.8818517 1.1847888 21.247999
-0.11307465 3.902885 1.171796 21.247999
-0.059623852 3.9179871 1.1919903 21.162666
0.016977465 3.8906133 1.2055792 20.991999
-0.0077783433 3.9209154 1.2089708 20.992001
0.066823639 3.915216 1.227069 20.889599
0.16044667 3.950048 1.263322 21.196798
0.21199989 3.9545937 1.2782811 21.504
0.56134212 6.4439812 2.0951622 20.736
0.58471203 6.4744825 2.1053209 20.48
0.64382237 6.4431906 2.1170087 20.684799
0.74679518 6.4390841 2.1432929 20.787201
0.84536183 6.4384756 2.1662247 20.672001
0.93313497 6.4342365 2.1811109 20.672001
1.0043939 6.4222798 2.1986434 20.48
3.8369329 1.6796837 2.2840359 20.138666
3.8438008 1.7191569 2.2779193 19.968
3.9597878 4.2346225 2.2331922 19.455999
3.6150086 4.895936 2.2718863 18.944
3.4696486 4.991343 2.2640486 18.944
3.517854 4.9594083 2.2646141 18.688
3.6403315 4.9083328 2.2809589 19.285334
3.3903174 5.0810575 2.2746859 19.200001
3.4316745 5.0557289 2.2754498 19.007999
3.3722649 5.1242137 2.2840786 19.285334
2.5521595 5.5769868 2.2712948 20.48
2.6431682 5.5873032 2.2902141 20.565332
2.7357304 5.5681505 2.29844 20.48
2.5485115 5.6080732 2.2800264 20.224001
2.6656244 5.6041346 2.2991159 20.48
1.7702075 6.0538564 2.2621365 19.775999
1.8564115 6.0446706 2.2771916 20.288
1.9393289 6.0205197 2.288475 20.224001
2.0440691 6.004344 2.2989841 20.48
1.6767558 6.1582832 2.2745209 18.816
1.7215534 6.1210012 2.26897 19.072001
1.5645032 6.2416267 2.273248 19.200001
1.6287394 6.2246227 2.2841046 18.688
1.0730906 6.3953104 2.2045503 20.864
1.1766984 6.3896666 2.2307506 20.864
1.2576889 6.3917623 2.2494662 20.736
1.3535093 6.3784447 2.2641318 20.0704
1.4493946 6.3337307 2.2741532 19.302401
1.51836 6.3117361 2.287219 19.200001
0.98828012 6.4533572 2.2023485 20.736
1.0368779 6.4294052 2.2081521 20.608
1.1304897 6.4248085 2.2284136 20.821333
1.2426167 6.4045916 2.2480443 20.736
3.2125151 0.17863485 2.398221 21.375999
3.2562337 0.25670624 2.3975239 21.504
2.7556067 5.5787101 2.3086119 20.650667
2.8536422 5.5824189 2.3274548 20.428799
2.9579144 5.5667357 2.3397863 20.565332
3.0956805 5.5674887 2.3692355 20.352001
3.1544096 5.5684886 2.3799295 20.223999
3.2286568 5.5616584 2.3911328 20.394667
2.7154841 5.616755 2.3109479 20.48
2.9347553 5.6087542 2.3492718 20.224001
2.1021459 5.987442 2.3055112 20.224001
2.2336576 5.9942284 2.3318152 20.352001
2.3302779 5.9812531 2.3517082 20.394667
2.4546173 5.9845223 2.3724711 20.543999
2.0550349 6.0364461 2.3123109 20.352001
2.1583126 6.0247045 2.330025 20.394667
2.2446554 6.0236831 2.3457291 20.309334
2.359961 6.010232 2.3642299 20.223999
2.4348958 6.0043139 2.3749125 20.736
3.1539967 0.045229219 2.4124587 21.427198
3.1931953 0.10645898 2.4138319 21.504
3.2176723 0.15170234 2.4141874 21.375999
3.2710826 0.25904515 2.4072382 21.567999
3.354105 0.39033949 2.4103751 21.375999
3.2821407 5.5854492 2.4082775 20.48
3.358495 5.552701 2.4122498 20.582399
4.4516616 5.4819803 2.6372313 20.224001
4.5540848 5.4824896 2.6672235 19.647999
5.1008849 4.3791928 2.7383194 19.968
4.147048 0.64351779 2.8960147 21.119999
5.1804304 2.9481406 2.8759487 19.200001
5.2684474 3.1552389 2.8902285 19.029333
5.3032284 3.2915015 2.8921063 18.944
5.2928305 3.3317761 2.8862212 18.944
5.3108201 3.3196104 2.8959544 18.944
5.2941003 3.4391236 2.8720672 18.944
5.3211927 3.4807909 2.8805707 19.200001
5.3142085 3.5003586 2.8769019 19.200001
5.3632092 3.6559949 2.882659 18.688
5.3587766 3.7535713 2.8759644 18.7904
5.3823051 3.8598163 2.885901 18.688
5.3638253 3.9112971 2.8713644 18.773333
5.3765206 4.0797014 2.8754499 18.688
5.3692465 4.1145859 2.8696902 18.559999
5.3461699 4.2609396 2.8596232 18.624001
5.3484993 4.4319181 2.8640416 18.304001
5.2396789 4.6448059 2.8180952 18.176001
5.2768135 4.7531309 2.844733 18.176001
5.2526774 4.8225832 2.8402758 18.175999
5.2296228 4.9646749 2.8395922 18.176001
4.930284 5.6198044 2.8159657 18.346666
4.1792212 0.67569959 2.9066696 20.736
4.2855458 0.84030211 2.9239578 20.48
4.3154259 0.84804451 2.9392843 20.416
4.4154201 1.0196629 2.946188 20.394667
4.4875116 1.1571339 2.9436445 20.288
4.5048666 1.1615318 2.9547346 20.224001
4.5314059 1.253283 2.9364178 20.138666
4.5602112 1.3394163 2.9270318 20.032001
4.6767178 1.5364536 2.9385798 19.968
4.708189 1.6551436 2.9191024 19.882668
4.777935 1.791198 2.9228182 19.712
5.0894547 2.523159 2.9219849 19.455999
5.1128626 2.5753074 2.9222348 19.200001
5.1767077 2.8382208 2.9047129 18.688
5.2411108 2.9606891 2.9150026 19.200001
-0.14260635 -1.17028 0.057789434 22.784
-0.16233428 -0.76324576 0.048561405 24.32
-0.24752417 -0.61667526 0.045042939 23.222857
-0.37170336 -0.44757229 0.029239329 22.976
-0.27976805 -0.47154725 0.045243986 23.231998
-0.35422292 -0.37350467 0.026332313 22.442667
-0.39709786 -0.29571021 0.00022350997 23.040001
-0.27682418 -0.1098266 0.0041858107 22.784
1.2823889e-05 4.1666433e-05 0.069963284 22.198311
0.44653875 -1.1150198 0.1839457 15.296
0.10827958 -1.0162175 0.11589682 22.784
0.38407242 -1.033444 0.16965374 14.08
0.44321251 -1.0847005 0.18249084 14.549333
0.075394556 -0.99123091 0.10853513 22.656
0.37084553 -0.96482497 0.16502836 12.544
0.13318919 -0.81592029 0.11603005 23.040001
0.16687246 -0.78278333 0.12095082 23.040001
0.7419039 -1.4767638 0.25524613 19.200001
0.66988981 -1.0152907 0.23857203 21.247999
0.73634481 -1.0188085 0.25642693 21.76
1.4811832 -0.21223515 0.52339923 14.976
1.4767357 -0.19844913 0.52522939 21.504
1.4378741 -0.072110027 0.52663898 22.528
4.1989617 -5.2408605 1.1323104 18.688
4.2743044 -5.2602563 1.1492928 19.285334
4.3233576 -5.223691 1.1612999 19.84
4.6775713 -5.3161364 1.2458853 19.455999
4.5983129 -5.2935786 1.2288755 19.455999
4.6397591 -5.2731438 1.2363877 19.584
4.7548771 -5.2841339 1.2616723 19.264
4.8390112 -5.2755356 1.2813743 18.816
5.1108289 -5.3118238 1.3464483 18.688
4.8966589 -5.2875738 1.3008591 18.176001
4.9249015 -5.2842588 1.3094313 18.176001
5.1242738 -5.292006 1.3514172 18.431999
5.1269217 -5.0480471 1.3443681 18.176001
5.278573 -5.0265498 1.375443 18.431999
5.2817364 -4.9580116 1.3731502 18.048
5.2910857 -4.8261814 1.3667907 18.944
5.3191452 -4.8054705 1.3765583 19.200001
5.3500772 -4.7719188 1.3852051 19.541334
5.4191127 -4.756722 1.3985462 19.455999
5.598083 -4.758359 1.4411895 19.455999
5.8169365 -4.7871537 1.4999062 19.200001
5.9097991 -4.8008518 1.5151973 18.688
5.848105 -4.7816887 1.5038222 18.688
5.9584022 -4.7466969 1.5304945 17.766399
6.0191317 -4.7018881 1.5501007 17.664
5.9658046 -4.6297541 1.5333591 17.664
6.0154862 -4.6377306 1.5419201 17.408001
5.9107704 -4.2216101 1.5180714 18.304001
5.8824048 -4.1591148 1.5062429 17.664
5.9248238 -4.0493412 1.5178763 16.639999
5.9992981 -3.9892256 1.5350623 16.384001
6.0328698 -3.9519799 1.5481068 16.554667
5.8949146 -3.6419721 1.5234151 18.944
5.9242024 -3.6211329 1.5319238 18.304001
6.0198288 -3.5493319 1.5582123 17.152
5.7857037 -3.1201088 1.5226647 19.072001
5.7648873 -3.0500367 1.5217947 19.797333
5.7444458 -2.9925451 1.5222595 19.968
6.4882469 -3.134588 1.7321275 20.224001
6.5295277 -3.1034379 1.749295 20.48
6.4871764 -3.0328782 1.7430674 20.053335
6.5227995 -2.9490247 1.7594484 20.326401
6.4894304 -2.8104942 1.7642249 20.224001
6.521347 -2.8407595 1.7702934 20.309334
6.5143943 -2.7478352 1.7810359 20.48
6.5172906 -2.6680326 1.7914509 20.224001
6.5437746 -2.6384773 1.803329 20.352001
6.5362935 -2.5511937 1.8137023 20.288
6.5405426 -2.4455774 1.8281043 20.428799
6.5473976 -2.3418682 1.8434566 20.48
6.5436268 -2.2411928 1.8581221 20.608
6.5573997 -2.1474285 1.8777907 20.352001
6.5539374 -2.0543003 1.8920456 20.352001
6.5891972 -2.0462058 1.9069401 20.394667
6.5799899 -1.9480973 1.9186404 20.416
6.5804024 -1.8687986 1.9325075 20.224001
6.6146998 -1.8218356 1.9521914 20.352001
6.5761127 -1.7438538 1.9504313 20.352001
6.6181984 -1.7549884 1.9653223 20.48
6.6145697 -1.6531639 1.9837897 20.223999
6.5863194 -1.5462946 1.9931191 20.352001
6.6299438 -1.5564739 2.0058472 20.224001
6.62537 -1.4556793 2.0156963 20.3776
6.6343684 -1.3474917 2.0393538 20.416
6.6344705 -1.2488827 2.0513184 20.5312
6.6388893 -1.1406753 2.0739517 20.326401
1.5425081 -1.628876 0.09667746 18.559999
1.5947951 -1.4179226 0.060995586 19.200001
1.6122129 -1.3703775 0.052954968 18.944
1.5763353 -1.2516532 0.043742914 19.072001
1.5568199 -1.1535677 0.03208923 20.736
1.5751576 -1.0649811 0.021139603 21.913599
1.5833493 -0.96451569 0.0066950596 22.442667
1.6065515 -0.98199415 0.0056937486 22.528
0 0 0.069999725 21.849306
2.3299258 -3.0047588 0.18525717 22.528
2.2867548 -2.968533 0.18646581 22.271999
2.3577096 -2.9861522 0.17654645 20.864002
1.5473975 -1.7086756 0.10537075 21.504
1.5524971 -1.6871699 0.10254326 19.712
0.52707243 -1.27354 0.18392912 10.496
0.43636718 -1.1302913 0.17536312 13.465601
0.50958258 -1.1935028 0.17526537 15.616
0.43114588 -1.0901558 0.17051144 12.458667
0.38163483 -0.98354173 0.16209564 13.824
0.18065611 -0.83650219 0.16459616 20.992001
-0.036494289 -0.67789203 0.18464093 23.296
0.76233512 -1.7544905 0.22221419 22.271999
0.23366174 -1.4172394 0.23658487 24.576
0.10021754 -1.1074511 0.21194896 18.944
-0.095955439 -0.70345259 0.20927565 23.040001
-0.50881624 -0.56274694 0.29734218 23.167999
-0.50690246 -0.43626264 0.27050316 23.296
-0.4959161 -0.25172803 0.24839886 23.588573
-0.48678431 -0.17522676 0.25555748 23.6544
-0.47973719 -0.086577736 0.28496441 23.808001
-0.30440304 -0.020605015 0.22229975 21.504
-0.30612719 0.045043454 0.25889564 22.911999
-0.29521334 0.061134495 0.2621136 22.784
-0.30688548 0.11059305 0.29627308 22.784
-0.29788008 0.10841951 0.29024684 22.784
3.1085351 -5.163703 0.39630476 20.48
2.3978684 -4.4847546 0.39622357 20.992001
2.4230068 -4.4973121 0.3976959 21.247999
-0.53903693 -0.92005986 0.38538098 22.698668
-0.53450191 -0.82302094 0.36408091 22.784
-0.52669054 -0.74680823 0.343844 22.784
-0.51335144 -0.58436847 0.30308315 23.040001
-0.30801317 0.16393304 0.3361409 22.9888
3.033793 -5.1687922 0.40945488 20.48
3.1016994 -5.1896319 0.40196994 20.224001
2.3336878 -4.6086197 0.42525539 19.455999
2.3555901 -4.5324788 0.41084793 20.309334
2.3481436 -4.4943714 0.40699866 20.736
-0.54833412 -1.166811 0.43166652 22.784
1.4383554 0 0.53613043 22.528
1.405691 0.13904805 0.540977 10.24
1.5316291 0.14167345 0.58154917 14.592
-0.42052981 0.46685144 0.55095023 23.040001
-0.41462526 0.57039654 0.60970145 22.784
-0.40885493 0.64794266 0.65649992 22.784
-0.40371376 0.71227282 0.69661289 22.528
-0.39298126 0.87944901 0.80722737 22.271999
-0.40226239 1.0797586 0.95187706 22.784
-0.38864189 1.1272392 0.98256952 22.4
-0.37039918 1.3427652 1.1326805 22.271999
5.5764375 1.5454087 2.1585784 17.664
5.6575041 1.6456571 2.2170687 18.944
6.592711 0.76880622 2.3000441 20.224001
6.6497283 0.77543283 2.3221965 20.224001
6.6281271 0.85855722 2.3258383 20.326401
6.6461153 0.95781982 2.3504636 20.288
6.6542864 1.0454892 2.3706026 20.288002
6.6523046 1.1212004 2.3856387 20.352001
-0.1510725 3.2194877 2.3938224 21.567999
3.3761845 3.2821579 2.3078313 20.121601
3.4599636 3.2581887 2.3126585 19.916801
3.5206013 3.2421751 2.3163247 20.096001
3.2507548 3.3528023 2.3158658 20.224001
3.3219991 3.3312366 2.3189576 20.160002
6.6810513 1.1807885 2.4075789 20.224001
6.7107639 1.1640415 2.4108241 20.224001
6.6812072 1.2445003 2.4150755 20.428799
6.6774254 1.345131 2.4388311 20.16
6.6752982 1.4444017 2.4607503 20.2752
-0.15374753 3.2378292 2.4080727 21.452801
6.7032866 1.5849556 2.5084662 20.224001
6.7174678 1.6108854 2.5214427 20.224001
3.2566111 3.7490499 2.5204449 20.138666
6.7461357 2.256829 2.7346313 20.053335
6.7615662 2.3459582 2.7717524 20.352001
6.7418513 2.4234662 2.7964525 19.712002
3.2943671 4.2346134 2.7739341 20.224001
3.3135026 4.2313724 2.7734127 20.224001
6.6787124 2.4730363 2.8022649 19.200001
6.7425756 2.4479616 2.8093367 19.584
6.5676522 2.575407 2.8044226 18.816
6.6458149 2.5655382 2.8239529 18.773333
6.7042966 2.5189481 2.8207741 19.200001
6.5370221 2.6477575 2.8224707 18.688
6.2949309 2.7978871 2.8164029 18.688
6.3631935 2.7557712 2.8222735 18.329599
6.2787671 2.8506901 2.8314283 18.431999
6.0619831 2.9643874 2.8204789 18.688
6.1249509 2.9710774 2.8386595 18.688
6.0288253 3.0317485 2.8356833 18.624001
6.1023602 3.0082197 2.8431258 18.431999
5.8237605 3.1646237 2.83707 18.624001
5.5881591 3.2589924 2.8115551 18.431999
5.6092815 3.2952642 2.832936 18.944
5.7550583 3.2348411 2.8499558 18.517332
5.8005419 3.2119777 2.8559954 18.688
5.4705958 3.3918529 2.8387485 18.944
5.5564137 3.3579352 2.8439839 18.688
5.3497496 3.4550691 2.8302605 18.944
5.1408691 3.5858841 2.8319101 18.944
5.2577801 3.5466042 2.8443315 18.986668
5.310092 3.506633 2.8419902 18.944
5.0263076 3.6628544 2.8399944 18.858667
5.1318135 3.6038971 2.8389411 19.072001
4.694756 3.7890842 2.8145378 18.944
4.7332883 3.7953861 2.8243771 18.944
4.8583512 3.7548504 2.8377681 19.264
4.9498048 3.7331531 2.8502998 19.114668
5.0084639 3.7111518 2.853967 19.072001
4.5671473 3.8571117 2.8171985 19.712
3.238764 4.3891525 2.8559241 19.968
2.7556906 4.4485016 2.8189859 19.712
2.8111856 4.4742889 2.8407445 19.584
2.9759026 4.4792376 2.8635566 19.584
3.0525303 4.4701233 2.8740013 19.669333
3.1460333 4.438292 2.8675008 19.763201
3.2866006 4.4097953 2.870976 19.968
1.253224 4.5291176 2.8948555 20.224001
1.4491069 4.5532918 2.8803291 19.712
1.5528935 4.5994439 2.8976426 19.968
1.6986096 4.5928917 2.882237 19.968
1.8523597 4.5994868 2.8772564 19.455999
2.1660519 4.5433135 2.8335273 20.224001
2.460731 4.5846982 2.8666344 19.626665
2.5689716 4.5861506 2.8779857 19.712
2.6523914 4.5521379 2.8687775 19.821714
2.7174938 4.5141273 2.8534439 19.712
2.9462748 4.5225725 2.8844454 19.626665
1.6029694 4.6023941 2.8987248 19.712
1.9421421 4.609499 2.8816266 19.968
2.0774214 4.6194263 2.8814178 19.712
2.104552 4.6012821 2.8683188 19.712
2.3497324 4.6219454 2.8827658 19.712
2.4347298 4.6300454 2.890209 19.797333
2.5364814 4.6195159 2.8938258 19.626665
0.089965157 4.113657 2.9405351 20.48
0.15004174 4.1415973 2.9380114 20.626286
0.2389482 4.1725149 2.9265285 20.3776
0.35612062 4.2347608 2.9331291 20.479998
0.44200107 4.252964 2.9192512 20.48
0.53405112 4.2972288 2.9236307 20.224001
0.55288249 4.3171859 2.9295099 20.394667
0.6481083 4.3615222 2.930722 20.394667
0.7467587 4.39851 2.9273174 20.224001
0.75042516 4.4194241 2.9409516 20.309334
0.85658938 4.4431777 2.9297349 20.370285
0.98171598 4.4764838 2.9166119 20.224001
1.0469655 4.4916401 2.91642 20.16
1.0638542 4.5073838 2.9220917 20.48
1.1466584 4.5342107 2.9223106 20.053333
1.2398756 4.5536885 2.9178512 19.968
1.3396686 4.5742025 2.916306 19.968
1.4199032 4.5874424 2.9117386 19.797333
1.3783695 4.6085205 2.9314771 19.968
1.5696015 4.6164093 2.9084661 19.797333
1.6524341 4.6255474 2.9083755 19.776001
1.7463114 4.6531878 2.9141874 19.84
1.8288772 4.6474409 2.9051733 19.903999
1.9373841 4.6393905 2.9011652 19.968
2.1110582 4.6545892 2.9017625 19.712
0 0 0.069999725 22.086525
0 0 0.069999725 22.197744
1.6492734 2.4543006 0.057522938 22.271999
1.7551057 2.4700193 0.03580182 22.528
1.5746163 2.5239627 0.084825434 20.650667
1.6179976 2.5452263 0.078093946 20.608
-0.30723283 0.060081869 0.18055375 23.040001
-0.30115411 0.13599207 0.1765731 22.912001
-0.29337472 0.17967314 0.17594685 22.784
-0.3077752 0.23369427 0.18225573 22.954666
-0.30445796 0.36026937 0.18439972 22.912001
1.4818798 3.0536194 0.18070723 18.688
1.5899198 3.0627308 0.16003528 18.688
1.6215544 3.0520358 0.14954945 19.007999
-0.48313412 -0.11906812 0.29430187 23.608889
-0.48991907 -0.061451886 0.28238794 23.424
-0.41030765 0.75625378 0.24496254 23.040001
-0.40167114 0.84301496 0.25170037 22.954666
-0.3932265 0.86807442 0.25314188 22.912001
0.026026065 1.5973285 0.24410668 22.528
0.021454692 1.6360331 0.24958727 22.784
1.5544297 3.4219539 0.21663578 21.845335
-0.50270343 -0.33020231 0.3798022 23.466667
-0.49654183 -0.33113649 0.37844625 23.332571
-0.50176257 -0.25468218 0.34658679 23.552
-0.49302426 -0.26187593 0.34701285 23.398399
-0.48656064 -0.1613027 0.3080501 23.577602
0.19257912 2.8297815 0.35381854 20.736
0.2501404 2.8936942 0.3505137 17.92
0.26140147 2.9159014 0.35047898 16.639999
0.78199941 3.1898952 0.30852824 22.016001
0.74980009 3.2364101 0.31971386 22.272001
0.66003466 3.4111006 0.35450494 21.504
-0.50419509 -0.50319445 0.47618055 23.040001
-0.49486956 -0.42509612 0.42559296 23.040001
-0.50643206 -0.38189983 0.40538675 23.296
1.9291655 6.2892532 0.49199089 18.176001
2.1552248 6.2715359 0.45964777 17.280001
2.268276 6.2742376 0.44146469 17.92
2.4318066 6.2854095 0.41584536 17.493334
1.9729538 6.3242569 0.48731035 17.408001
2.0445991 6.3320694 0.4814637 17.536001
2.1371999 6.3278508 0.46928576 17.407999
2.3882542 6.3217964 0.43066457 17.535999
-0.51656818 -0.6008724 0.54137427 23.040001
-0.50660914 -0.59309185 0.53481531 22.784
1.8707318 6.387341 0.50719696 17.152
-0.52739656 -0.80539054 0.68708062 22.656
-0.52494329 -0.70951551 0.6182183 22.784
0.76450586 6.3895392 0.65829629 20.736
0.839369 6.3838058 0.65198863 20.48
0.92165935 6.3808265 0.63778245 20.736
1.0260589 6.3848133 0.62452948 19.200001
0.69832081 6.4119639 0.67295486 20.736
0.74889863 6.403091 0.66269004 20.736
0.85700232 6.4125266 0.65143746 20.821333
0.95166713 6.4081497 0.63678813 20.608
1.0309116 6.4148479 0.62712938 19.455999
-0.55329424 -1.0315025 0.85431457 22.528
0.07079263 -3.1250064 2.3871541 20.48
0.18624365 -3.1145966 2.3829856 20.48
0.2762005 -3.1175048 2.3901317 20.394667
0.33483833 -3.1083505 2.3876009 20.416
0.40266362 -3.1005745 2.3877497 20.992001
-0.032749545 -3.0476775 2.3293891 21.76
0.062338013 -3.0928211 2.3632486 20.589712
0.14084138 -3.0800858 2.3557408 20.543999
0.22479449 -3.0860662 2.36378 20.608
0.36161143 -3.0916157 2.3775067 20.6336
0.44911534 -3.0872564 2.3827624 20.799999
0.54189372 -3.0754406 2.3850698 21.408001
0.6084438 -3.0660193 2.3871541 20.992001
3.0737882 -0.888331 2.3965061 21.76
-0.64170206 -3.1420066 2.4344678 21.407999
-0.57614791 -3.1515658 2.4404202 21.4016
0.45549333 -3.1184251 2.4062107 20.736
2.8574085 -1.1485118 2.4724452 21.503998
2.8722963 -1.0733259 2.4235053 21.555199
2.9272645 -1.0411717 2.4282925 21.4016
2.9983175 -0.98134255 2.4218426 21.375999
3.0295708 -0.95030528 2.4153016 21.375999
3.1405408 -0.85898715 2.4132051 21.344
2.7961876 -1.3282382 2.569912 20.992001
2.8569984 -1.312863 2.5892832 21.504
2.8413668 -1.2460048 2.53161 21.375999
0.91322845 -3.3539603 2.6467993 21.76
2.8261685 -1.4360493 2.6655738 21.056
2.8272114 -1.3873074 2.6292224 20.992001
2.8328543 -1.6151013 2.7955978 20.48
2.8216259 -1.54993 2.7456119 20.963556
2.843339 -1.4841657 2.7065887 21.162666
-0.46142042 -3.9177523 2.9943826 20.565332
-0.34070161 -3.9290326 2.9935884 20.608
-0.28083917 -3.941653 2.9993451 20.736
-0.5339852 -3.8935082 2.9832661 20.992001
0.89688301 -3.8155172 2.9755244 20.736
0.90956706 -3.8149908 2.9773109 20.736
1.1253664 -3.7538795 2.9779236 20.48
1.1875196 -3.6826153 2.9683595 20.48
1.2339519 -3.6474571 2.975095 20.589716
1.2669386 -3.5935256 2.967725 20.736
1.3306576 -3.5452039 2.9820335 20.48
1.3782717 -3.4799919 2.9743748 20.565332
1.4415126 -3.4156651 2.9871974 20.352001
1.4561282 -3.3869777 2.9769654 20.428799
1.5524657 -3.2356973 2.9702239 19.9168
1.6353767 -3.148221 2.9840033 20.224001
1.6943271 -3.0818536 2.9867091 20.224001
1.7170633 -3.048295 2.9874861 20.096001
1.7298743 -2.9980631 2.9721446 19.968
4.2836518 -0.72161144 2.9614418 20.309332
4.3206472 -0.69258988 2.9608564 20.224001
4.4196625 -0.61506075 2.961736 20.138666
4.4716544 -0.56438893 2.9604762 20.1728
4.5278287 -0.51313776 2.955641 20.053335
4.5784302 -0.47466066 2.9618158 19.968
4.6270008 -0.42772752 2.9587533 20.096001
4.6278896 -0.39078838 2.9350941 20.224001
4.7372899 -0.31669542 2.9488833 19.84
4.7240124 -0.28567708 2.9247892 20.224001
4.9654422 -0.078880318 2.9371445 19.797333
5.028605 -0.031922255 2.9425189 19.797333
5.0319996 8.7982278e-07 2.92398 19.712
-0.52073032 -3.9362237 3.0133395 20.736
-0.45308685 -3.9445624 3.0133991 20.6336
-0.37601978 -3.9474282 3.009469 20.48
-0.24607275 -3.9611242 3.0121062 20.516571
-0.19357526 -3.9573569 3.0070868 20.736
1.3504353 -3.5576613 3.0033383 20.48
1.6761208 -3.1309221 3.0038257 20.160002
1.7252662 -3.0684469 3.00774 19.968
-0.4814285 -0.089594595 0.014157908 23.808001
-0.31853467 0.021281045 0.043253571 23.167999
0 0 0.069999725 22.344818
-0.30947474 0.14054318 0.070677094 23.072002
-0.29691324 0.16135575 0.0771304 23.040001
-0.30531299 0.26881483 0.096319534 22.869333
-0.29749253 0.26013759 0.095350184 23.040001
-0.30616495 0.32925504 0.10542822 23.040001
-0.31415206 0.41681358 0.11637042 23.040001
-0.40510935 0.77376521 0.15976611 23.040001
-0.39940819 0.76880771 0.15971518 23.040001
-0.38567096 0.96811521 0.19004953 22.528
-0.32912382 1.8869885 0.35796022 22.528
-0.12748334 3.8678067 0.80453312 21.247999
-0.035281043 3.8669984 0.83637422 21.119999
0.050785877 3.879689 0.87205732 21.043201
0.10627972 3.8791721 0.89329755 21.247999
-0.11632319 3.9059212 0.8148036 21.247999
-0.017067006 3.908438 0.85231614 20.992001
0.15632023 3.8785567 0.9180758 21.056
0.24121922 3.8648512 0.95074934 21.034668
0.65187699 6.3674932 1.629431 20.736
0.63953793 6.449049 1.6436327 20.48
0.76054269 6.4210544 1.683894 20.650667
0.80100256 6.413466 1.6972899 20.48
0.96709192 6.379281 1.7604687 20.48
0.854577 6.427093 1.7236032 20.416
0.93639207 6.4175315 1.7541351 20.565332
1.0281816 6.4044428 1.7933841 20.48
1.0776116 6.3878741 1.8071424 20.48
1.1364189 6.3660607 1.8289286 20.394667
1.2557214 6.3874893 1.8800328 20.608
1.3028269 6.3598666 1.8965482 20.224001
1.0630558 6.4259367 1.8112118 20.48
1.1425856 6.4003801 1.8348947 20.48
1.207482 6.4105463 1.862234 20.48
1.3586942 6.3747993 1.922789 20.416
1.4610844 6.3734879 1.9676493 20.394667
1.5346471 6.3538108 1.9887305 20.309334
1.4520808 6.4120579 1.9716192 20.48
1.5850091 6.3844695 2.0192609 20.48
1.656389 6.3683872 2.0473754 20.416
1.7419274 6.3542542 2.0816345 20.544001
1.6106253 6.40066 2.036777 20.48
1.8485329 6.3556318 2.1245251 20.531199
1.9604009 6.3618751 2.17559 20.48
3.6154935 4.2730575 2.2966037 19.200001
3.5781803 4.3115988 2.2988214 19.712
2.4739404 5.5696468 2.2064497 19.968
2.5501816 5.5811882 2.2370241 20.565332
2.6454699 5.5880575 2.2758517 20.48
2.7056212 5.5817971 2.2981019 20.224001
2.554961 5.6310225 2.251075 20.352001
2.4459171 5.9871492 2.2872288 19.712
2.4296818 6.0571289 2.29247 19.200001
2.3890073 6.1238227 2.2897496 19.200001
2.4099004 6.1199064 2.2967153 19.200001
2.3311312 6.2676139 2.2996285 18.944
2.0541918 6.3427896 2.2052333 20.48
2.1525872 6.3361802 2.242063 20.582399
2.2385726 6.3242188 2.2745049 20.650667
3.5509508 4.3768654 2.3120353 19.200001
3.622155 4.3458691 2.3205059 19.541334
3.4687881 4.4559917 2.3163781 19.029333
3.5197265 4.409492 2.3143454 19.200001
3.3723006 4.5717793 2.3298695 19.392
3.4328144 4.5171046 2.3269124 19.285334
3.3256025 4.6304779 2.3378162 19.52
3.3113332 4.704504 2.3585153 19.456001
2.7526112 5.5731015 2.3135052 20.394667
2.8494887 5.5709915 2.3421247 20.672001
2.9503341 5.5594935 2.3800168 20.352001
2.8369746 5.601366 2.3471286 20.48
2.4776053 6.0101271 2.3042161 19.968
2.3368998 6.283143 2.3051624 19.456001
2.2946558 6.3541756 2.3052773 19.712
2.3067553 6.3247342 2.3032186 19.712
3.3212173 4.8981404 2.424123 19.968
3.3061645 4.9094338 2.4244928 19.968
3.012136 5.5479264 2.4254603 20.224001
3.335727 5.1272068 2.5032225 19.455999
3.0526237 5.5175705 2.5671971 20.288
3.1334889 5.518044 2.5942724 20.394667
6.0872855 3.8885105 2.6833792 18.431999
6.1277585 3.8598166 2.6901834 18.559999
5.9834514 3.9984436 2.6736829 18.688
6.0549312 3.9631915 2.6882441 18.483198
5.8905582 4.0731635 2.6610949 18.431999
5.7783685 4.1790872 2.6500945 18.005333
5.8425522 4.1436658 2.66152 18.495998
4.5163069 4.5073519 2.6081951 21.504
3.2785585 5.4858398 2.6122608 20.608
3.3737991 5.4857235 2.631851 20.224001
3.1766798 5.5122733 2.6008027 20.48
3.2440164 5.5170736 2.615957 20.608
3.3541446 5.5124421 2.6368408 20.352001
6.2622619 1.6155092 2.78743 19.968
6.7131743 2.265821 2.7944493 19.968
6.7281008 2.3424783 2.781908 20.0704
6.7700629 2.5456195 2.7687397 20.032001
6.8024111 2.588609 2.7729633 19.968
6.7686563 2.6622841 2.7563479 19.968
6.7842221 2.7517316 2.7590568 19.968
6.8092256 2.7786043 2.7691426 20.224001
6.7763281 2.8408265 2.7507446 20.096001
6.8046188 2.8526459 2.7587149 19.712
6.7852106 2.9080598 2.7600844 19.968
6.8106494 2.9489336 2.7702081 20.138666
6.8217235 3.0528741 2.7788541 20.032001
6.8299699 3.148056 2.7909443 19.968
6.7842774 3.2851648 2.7971816 19.200001
6.7383289 3.3692522 2.7957077 18.602667
6.6662202 3.4665222 2.7884724 18.483202
6.704524 3.4057398 2.7907176 18.431999
6.5619507 3.5637634 2.7716656 18.346666
6.6408129 3.5612259 2.7963314 18.304001
6.3975449 3.6834841 2.7408757 18.304001
6.4649129 3.6542377 2.7568092 18.346666
6.5173173 3.6158624 2.7665622 18.431999
6.280314 3.7906926 2.724035 17.92
6.3369493 3.7430205 2.7328124 18.329599
6.1776204 3.8502104 2.7036221 18.176001
6.2422061 3.821954 2.7181377 18.261333
5.5861168 4.2137299 2.7976146 18.688
5.4096251 4.3286057 2.7952807 18.176001
5.1060143 4.4008889 2.7335131 18.944
5.0383139 4.658946 2.7936556 18.431999
4.7422547 4.9480691 2.7963326 18.431999
4.6640925 5.0078673 2.7922666 18.688
5.6475015 0.66666412 2.8978057 19.712
5.7188282 0.73962224 2.8989375 19.455999
6.0161862 1.1109588 2.8815045 19.200001
6.222856 1.3444157 2.8899016 19.072001
6.828372 3.2398376 2.8044963 19.519999
6.7904978 3.3281999 2.8060274 18.816
5.5460248 4.2669735 2.8101685 18.559999
5.3739572 4.3989253 2.8079302 18.176001
5.4646258 4.3583055 2.8153706 18.261335
5.5597582 4.3198061 2.8301868 18.559999
5.382937 4.4348993 2.8196669 17.92
5.4211006 4.4088383 2.8248017 18.944
5.0810184 4.6537075 2.804723 18.431999
5.1437712 4.6218309 2.8146834 18.431999
4.9879961 4.7313619 2.8048339 18.944
5.025445 4.7291589 2.8150909 18.559999
4.7858806 4.930532 2.8033555 18.944
4.6971292 5.0113344 2.8022466 18.176001
4.7385092 5.0074511 2.8124113 18.431999
4.6247945 5.1101561 2.8116717 18.559999
5.0683613 0.0080337273 2.9317818 19.968
5.1186819 0.056942984 2.9319425 19.84
5.2266865 0.1743578 2.925693 19.584
5.2626934 0.21739869 2.9252808 19.626665
5.3198171 0.27058479 2.9258745 19.797333
5.3530383 0.31914002 2.9160428 19.456001
5.4531226 0.42223248 2.9218991 19.370667
5.6056943 0.58963221 2.9107509 19.455999
5.710536 0.69249988 2.91396 19.455999
5.748291 0.75980622 2.9048636 19.007999
5.9475312 0.97181392 2.9144735 19.370667
6.0164623 1.0813982 2.901947 19.455999
6.143384 1.2254968 2.9023995 18.816
-0.15434833 -0.97551882 0.096147031 22.784
-0.15453658 -0.76972502 0.082950518 24.166401
-0.49956393 -0.61577827 0.02890148 23.040001
-0.26589718 -0.61747879 0.046155244 23.040001
-0.47257426 -0.51078117 0.030184813 23.296
-0.49870497 -0.45267522 0.025239255 23.296
-0.28428832 -0.46814436 0.043809123 23.231998
-0.49254203 -0.36457613 0.01792698 23.296
-0.327959 -0.37782446 0.043683752 22.271999
-0.45964015 -0.25695452 0.0068445341 22.954666
-0.29081154 -0.10834783 0.01601493 23.040001
0 0 0.069999725 22.505552
-0.063834079 -0.98086536 0.11565535 24.832001
-0.0024148002 -0.76175034 0.11358535 23.040001
0.059082955 -0.77959728 0.12388615 23.398401
0.13964413 -0.77660257 0.1360265 23.039999
0.42556515 -1.1151619 0.2075019 17.535999
0.55269086 -1.0210934 0.23681244 21.76
0.74402452 -1.0320536 0.28582177 17.408001
0.8262006 -1.116197 0.30828062 5.632
1.2841253 -0.19067696 0.47863832 7.6799998
1.4829112 -0.21059415 0.54398906 14.848
1.4410826 -0.17313164 0.5326525 21.589333
1.3967936 -0.088679038 0.52594703 22.528
4.0426388 -5.2325287 1.2267888 19.84
4.1444702 -5.2260242 1.2540205 19.84
4.2927575 -5.2233505 1.2889072 19.455999
4.3017669 -5.2006164 1.2867781 19.455999
4.2931142 -5.1567783 1.2903322 19.200001
4.5599909 -5.2533264 1.358608 18.560001
4.6130028 -5.2134199 1.3719401 18.431999
4.6411324 -5.1621723 1.3728861 18.517332
4.6566954 -5.0653563 1.3787156 18.688
4.6769085 -4.9125519 1.3843979 18.431999
4.6783843 -4.8521595 1.3815103 18.517332
4.7243562 -4.8380404 1.3965398 17.92
4.7285128 -4.7511292 1.3943207 18.944
4.7920103 -4.7241573 1.4061594 19.712
5.1835699 -4.750289 1.5053852 19.200001
5.200778 -4.7358098 1.5059853 19.200001
5.5004706 -4.7898278 1.588181 17.664
5.6849236 -4.7634544 1.6375655 19.712
5.700058 -4.71489 1.6393915 19.712
5.6847844 -4.6568875 1.6349717 19.584
5.7066965 -4.6147194 1.641742 19.072001
5.6819448 -4.5501761 1.6318673 18.431999
5.7045832 -4.5386944 1.6399783 18.688
5.5882416 -4.2610936 1.6088779 18.560001
5.5811148 -4.117404 1.6054883 18.431999
5.583889 -4.0650396 1.6102498 18.688
5.6124029 -4.0451183 1.621148 18.431999
5.8471212 -4.0612912 1.6891651 17.92
5.9386473 -4.0141964 1.7176425 18.944
5.9632859 -3.9759891 1.7271115 18.517334
5.9582705 -3.6531875 1.7292708 19.968
5.9581389 -3.5499866 1.7338216 20.019199
5.9760609 -3.4714069 1.7397314 19.968
5.9397697 -3.3378813 1.7354959 19.712
6.4785781 -3.3360007 1.8987424 20.992001
6.5216274 -3.3190231 1.9123936 20.608
6.4867086 -3.2625163 1.9040439 20.736
6.511961 -3.2365189 1.9157186 20.352001
6.4840412 -3.1207461 1.9140801 20.224001
6.5082407 -3.1833787 1.9177846 20.352001
6.4915161 -3.0361176 1.9250826 20.309334
6.5276294 -3.0530305 1.9315016 20.352001
6.4973001 -2.9141996 1.9385762 20.224001
6.5248451 -2.9431932 1.944379 20.223999
6.5167952 -2.8365526 1.9496026 20.352001
6.4982772 -2.7188656 1.958919 20.48
6.5222669 -2.745189 1.9617696 20.224001
6.535594 -2.6496727 1.9727119 20.16
6.5431032 -2.556617 1.9841149 20.288
6.5400782 -2.4958427 1.9874738 20.736
6.4894576 -2.3593817 1.9899337 20.224001
6.5587244 -2.4791679 2.0021975 20.224001
6.5540924 -2.3359511 2.0161474 20.224001
6.5733137 -2.2609258 2.0286746 20.287998
6.5820222 -2.1651883 2.0439398 20.288002
6.6002407 -2.1075969 2.0538614 20.224001
6.5763807 -2.0426848 2.0532169 20.223999
6.5767293 -1.9517646 2.0642288 20.288002
6.5749559 -1.8495529 2.0725613 20.352001
6.6042814 -1.8577968 2.0800397 20.224001
6.6026516 -1.7673165 2.0934634 20.224001
6.6123614 -1.7250526 2.1006446 20.48
6.6168351 -1.6591812 2.1119213 20.3776
6.5896802 -1.5748615 2.1144395 20.224001
6.627707 -1.5285648 2.1271591 20.394667
6.6402006 -1.453995 2.1425281 20.543999
6.635499 -1.3540319 2.1481867 20.3776
6.6422563 -1.2461756 2.1620145 20.3776
6.6422167 -1.1455057 2.1703813 20.608
1.6658738 -0.13840514 0.090716898 23.153778
1.6577189 -0.043292429 0.067413516 23.232
0 0 0.069999732 21.845924
1.6749456 2.9285678e-07 0.056507356 23.040001
1.596372 -0.74217236 0.19649699 19.968
1.6232986 -0.70509851 0.19171168 20.224001
1.631161 -0.67185766 0.18724 20.48
1.650723 -0.589616 0.17479114 20.992001
1.6585937 -0.45950282 0.15477069 21.152
1.622992 -0.33951998 0.1335081 22.186666
1.5997176 -0.25102648 0.11784209 22.528
1.6384838 -0.22255817 0.1093339 22.784
1.6492635 -0.19205998 0.10311882 23.040001
1.5728605 -1.3005105 0.27343106 18.688
1.6175363 -1.3857329 0.28726044 18.431999
1.5903786 -1.1301976 0.24233069 19.199999
1.617099 -1.1034151 0.23938397 19.455999
0.43045485 -1.0172138 0.27380812 22.528
0.55738574 -1.0351204 0.26059893 22.271999
0.65478104 -1.0319152 0.25468519 22.016001
0.76075888 -1.0333891 0.25133574 21.375999
1.6162602 -1.0730027 0.23485583 19.712
1.5999475 -0.990439 0.22408643 19.455999
1.6317919 -0.93318427 0.21889383 19.52
1.6243691 -0.84855604 0.20882387 19.968
1.6340655 -0.79149735 0.20256442 20.224001
1.5774629 -1.6783309 0.3478784 17.664
1.5838412 -1.5663562 0.32402003 19.455999
-0.51857698 -0.66425741 0.37565142 23.040001
-0.50760317 -0.50517559 0.33034474 23.167999
-0.50639737 -0.43798858 0.32259548 23.296
-0.5046308 -0.36737144 0.32799941 23.296
-0.49344745 -0.35208476 0.32378218 23.381332
-0.4939009 -0.27236018 0.34227931 23.466667
-0.48566321 -0.14393929 0.37812603 23.552
-0.47230768 -0.071913324 0.39788026 23.552
-0.31314251 -0.0049739489 0.30741534 23.040001
0.33077309 -1.4107976 0.42539185 22.528
-0.15634987 -1.1520964 0.48613238 22.656
-0.53011489 -0.92382491 0.45628339 22.528
-0.53920126 -0.79292297 0.41775733 23.040001
-0.48404923 -0.079900406 0.40310848 23.552
0.24663977 -1.7137237 0.54926741 22.784
0.28001988 -1.6883554 0.53074664 22.720001
0.32643348 -1.6774448 0.51213825 22.784
-0.23119357 -1.1398 0.52541894 22.528
1.4621023 0.072047159 0.56872106 22.528
1.4560932 0.14698642 0.58053058 10.410666
-0.42693532 0.4740248 0.56716233 23.040001
-0.42116457 0.53064108 0.58157134 23.040001
-0.58838868 -1.403131 0.66580027 22.528
-0.41518381 0.62666732 0.63363272 22.784002
-0.39506367 0.70131588 0.67342091 22.528
-0.39804104 0.8816753 0.79518479 22.528
4.6689301 -5.3288693 0.96337491 19.200001
4.7428823 -5.3103156 0.95670485 18.944
4.2711616 -5.2670312 0.9726854 19.455999
4.3115401 -5.2483239 0.96532345 19.626665
4.6538129 -5.2888184 0.95831233 19.285332
4.773901 -5.2940445 0.95222425 19.327999
0.2379398 -4.605382 1.4944013 20.096001
0.30371454 -4.6574168 1.4881349 20.224001
0.17329487 -4.544034 1.4937088 20.48
0.09987814 -4.4910259 1.4991633 20.48
0.10694656 -4.4881444 1.4945072 20.224001
0.0069729844 -4.3902125 1.492746 20.992001
-0.007022995 -4.4214559 1.5066206 21.504
-0.11136544 -4.3806829 1.5254973 21.632
-0.055736523 -4.3886075 1.5103601 21.717333
5.0736709 1.6414113 2.1912613 19.200001
5.1835837 1.5864813 2.2071626 18.688
5.2229142 1.5803913 2.2116292 19.200001
3.4764822 3.0852053 2.30619 20.224001
3.506794 3.0725186 2.3101666 20.309334
-0.13626042 3.175545 2.3923597 21.504
3.2763269 3.1889989 2.3130071 20.224001
3.3541298 3.1567788 2.3146927 20.187428
3.4411011 3.1168199 2.3159814 20.1728
-0.10677864 3.2002246 2.3982704 21.247999
3.2307637 3.2462711 2.3318875 20.48
3.2134249 3.3436918 2.3783164 20.48
6.6472869 0.85139072 2.4436231 20.224001
6.6472473 0.95672476 2.4677782 20.288002
6.6332088 1.0300905 2.4792681 20.309334
-0.1677624 3.1796505 2.403302 21.555201
-0.14009547 3.2052333 2.4141903 21.247999
6.6584969 1.0773801 2.5045245 20.48
6.6762304 1.1456295 2.5254922 20.275202
6.6651835 1.2530371 2.5492713 20.138666
6.7055535 1.2606399 2.5622938 20.224001
6.6817455 1.3663559 2.5908697 20.224001
6.710309 1.3389189 2.5932477 20.352001
3.2307537 3.5942333 2.5103099 20.224001
6.7002654 1.3923311 2.6054809 20.48
6.6836944 1.440684 2.6191337 20.224001
6.7184124 1.4630252 2.6415324 20.224001
6.6927147 1.5579578 2.661047 20.096001
6.7151837 1.544434 2.6631031 20.138666
6.3735447 1.666263 2.6031528 21.76
6.709003 1.6180164 2.6873388 19.968
3.2397804 3.7939055 2.6180406 20.224001
3.2662818 3.9759445 2.7104676 20.096001
3.2707434 4.0202837 2.7420995 19.968
6.3512907 2.3485217 2.8264928 18.739201
6.2788739 2.4434733 2.8343582 18.517332
6.3177814 2.4393682 2.8425736 18.688
6.1532311 2.5458746 2.8290842 18.645334
6.24891 2.504478 2.8381317 18.431999
5.9639964 2.6811106 2.823437 18.944
6.0145531 2.6694849 2.8319769 18.816
6.1102781 2.6080515 2.8375576 18.688
5.9518833 2.7555256 2.8417149 18.645334
5.7600574 2.8923621 2.8336992 18.816
5.8511486 2.8455985 2.8431442 18.858667
5.7340794 2.9480453 2.8433878 19.007999
5.5637927 3.0762036 2.8394554 18.944
5.6074982 3.0425892 2.8394301 18.944
5.4690619 3.172967 2.8474169 18.688
5.5246086 3.1497536 2.8547854 19.072001
5.3648767 3.2647872 2.859796 18.995199
5.4174037 3.2124331 2.8520043 19.029333
5.1741624 3.3643856 2.8434398 18.944
5.2316504 3.3371816 2.8556836 18.816
4.8869486 3.4963119 2.8313961 19.200001
5.0459409 3.4527805 2.8477027 19.072001
4.7948513 3.5586915 2.8307407 19.455999
4.92448 3.5468667 2.8589556 18.944
4.566885 3.6793568 2.8307915 19.455999
4.6585636 3.6565533 2.84127 19.302401
4.7467346 3.6173072 2.8459435 19.264
4.808928 3.6047964 2.8598986 19.455999
4.5471201 3.7113745 2.84407 19.455999
3.284549 4.1572518 2.8093758 19.968
3.0445368 4.2986188 2.8475344 19.968
3.2719984 4.2514386 2.8586464 20.181334
1.4269055 4.3868217 2.8962748 20.224001
2.716203 4.3722029 2.8500326 19.968
2.8570478 4.393693 2.8773189 19.84
2.9438906 4.373682 2.8732846 19.669334
3.2273958 4.3149261 2.8848696 20.138666
1.6881362 4.4348998 2.8977973 19.712
1.7567048 4.4443521 2.8979905 19.712
1.8603771 4.4562736 2.897691 19.712
1.9613408 4.4572191 2.8914752 20.224001
2.0800061 4.4555616 2.8858712 19.660799
2.1462891 4.4581203 2.8888288 20.223999
2.2542596 4.4711943 2.8922651 19.84
2.3440788 4.4715071 2.8926463 20.019199
2.4534967 4.47084 2.8943529 19.84
2.5270071 4.4529095 2.8811836 19.775999
2.6639805 4.4441528 2.8829377 19.763201
2.7179422 4.4218559 2.8784895 19.584
2.8675621 4.4100423 2.8877287 19.84
0.015860412 3.9929509 2.9384441 20.736
0.063740112 4.0130782 2.9434772 20.582401
0.14789777 4.0440979 2.9431648 20.543999
0.25731674 4.0778365 2.9400635 20.522665
0.24130297 4.1014147 2.9597487 20.352001
0.37398529 4.1194148 2.936861 20.352001
0.45698166 4.1608233 2.9484954 20.406857
0.5575735 4.1792188 2.9312308 20.266666
0.62469828 4.1984515 2.9330676 20.48
0.51045865 4.2083025 2.9625847 20.48
0.66094905 4.226274 2.9418459 20.309334
0.75647151 4.2456918 2.9337177 20.370285
0.84405482 4.2582779 2.921263 20.428799
1.0615237 4.3411217 2.9321713 20.223999
1.1651762 4.3713865 2.9332523 20.224001
1.2590215 4.3861237 2.9239159 20.160002
1.3193444 4.385314 2.9145088 20.48
1.241333 4.4033852 2.9385853 19.968
1.3548915 4.4116235 2.9258065 20.3776
1.412782 4.4148111 2.9172845 20.736
1.5101871 4.4267206 2.9158928 20.224001
1.6627308 4.4531012 2.9141619 19.968
1.7280012 4.4542942 2.9071915 19.968
1.8390312 4.46486 2.9050179 19.968
1.949551 4.4883204 2.9102707 19.968
2.0436616 4.488709 2.9074361 19.712
2.1972716 4.4998331 2.9101665 19.968
2.2082887 4.4861956 2.9009047 19.968
2.4223995 4.4815707 2.9027977 19.968
3.0366828 4.4051476 2.9069648 19.968
2.4531355 4.5041709 2.9168456 19.712
0 0 0.069999725 22.044086
1.6530987 0.040551834 0.045083564 23.003431
1.6345198 0.12918608 0.023378529 22.848001
0 0 0.069999725 22.122149
-0.14730859 2.2842567 0.005028747 21.76
-0.18169978 2.32412 0.010787476 21.196802
