# .PCD v0.7 - Point Cloud Data file format
VERSION 0.7
FIELDS x y z intensity
SIZE 4 4 4 4
TYPE F F F F
COUNT 1 1 1 1
WIDTH 1205
HEIGHT 1
VIEWPOINT 0 0 0 1 0 0 0
POINTS 1205
DATA ascii
4.9628959 2.5421717 2.8653004 19.302399
5.0064163 2.5283675 2.8751011 19.455999
4.7740531 2.6808217 2.861119 19.541334
4.864018 2.6138744 2.866215 19.584
4.9247522 2.6062517 2.8781219 19.84
4.6844482 2.7930398 2.8739874 19.455999
4.7383618 2.7473314 2.8745584 19.712
4.5512891 2.8731556 2.8633428 19.712
4.6415081 2.8177032 2.8730323 19.797333
3.2434528 3.4926918 2.856137 20.736
3.0177968 3.5893784 2.8938167 20.224001
3.2342615 3.5444851 2.8896477 20.736
2.4114597 3.6441929 2.8923261 20.224001
2.5420732 3.6369517 2.8926804 20.224001
2.6740303 3.6256244 2.8826735 19.968
2.7163763 3.6343656 2.8979897 20.096001
2.8353643 3.6224978 2.8981125 20.224001
2.9322815 3.6024587 2.8938365 20.352001
3.0142443 3.5967529 2.9056633 20.224001
3.1423252 3.5841434 2.9055405 20.138666
3.2490911 3.5892992 2.9199579 20.736
1.6957936 3.6948731 2.9271235 20.48
1.8361167 3.6865549 2.9174612 20.224001
1.9916 3.6849444 2.9140613 20.48
2.0640399 3.6915941 2.9180768 20.48
2.1662052 3.6929533 2.9213569 20.48
2.2440522 3.6897736 2.921526 20.351999
2.3264961 3.6788559 2.9157615 20.351999
2.4504662 3.6711736 2.9147954 20.224001
2.5430875 3.6671534 2.9128668 20.138666
2.6449904 3.6587365 2.9128098 20.172802
2.7237389 3.6442533 2.9056637 20.224001
2.8496437 3.6347656 2.9095037 20.16
2.9474034 3.6208839 2.9083614 20.287998
3.0016911 3.6050086 2.904629 19.968
0.43942672 3.793566 2.9604564 20.48
0.54008657 3.7853057 2.9603446 20.48
0.65847808 3.7774403 2.9635422 20.512001
0.73997843 3.7648234 2.9590425 20.48
0.84965211 3.7692683 2.9695163 20.416
0.9474355 3.7516401 2.9649992 20.415998
1.0338477 3.7409928 2.9579599 20.394667
1.1558819 3.7386279 2.9569936 20.44343
1.250721 3.7389812 2.961374 20.297144
1.3443106 3.7291329 2.9524133 20.406857
1.4293178 3.7219722 2.9450004 20.437332
1.557024 3.7289507 2.9526482 20.522665
1.6464632 3.7224488 2.9466155 20.370285
1.7592806 3.723037 2.9458535 20.522665
1.8500377 3.7142842 2.938957 20.437332
1.9263144 3.7085879 2.9341285 20.48
2.0318847 3.7122924 2.933975 20.309334
2.1260529 3.7050419 2.9322708 20.394667
2.2516987 3.7024729 2.9352355 20.48
0.05822536 3.8521993 2.9859543 20.608
0.154677 3.8478398 2.9847472 20.544001
0.25287205 3.8265738 2.9726019 20.479998
0.37372261 3.8202271 2.9752421 20.582399
0.43207863 3.8183641 2.9784606 20.309334
0.52095979 3.8068531 2.9735024 20.224001
0.089685194 3.8877101 3.0132625 20.736
0.11411492 3.8766994 3.0054169 20.48
0 0 0.069999725 22.045977
0 0 0.069999732 22.330313
0.61885226 1.9087707 0.029200155 10.24
1.4475995 6.3613052 0.080847397 18.090668
1.3941242 6.4418111 0.097810723 18.431999
1.4430629 6.4197116 0.085125186 18.048
2.361954 9.0181293 0.012779148 19.200001
-0.31003818 0.038502682 0.16670378 23.040001
-0.30607828 0.1435495 0.15591399 23.040001
-0.29965287 0.1395448 0.15376398 22.784
-0.30946195 0.23049033 0.15277867 22.912001
-0.30895451 0.30858147 0.15218951 23.040001
-0.30713463 0.44936556 0.15567352 23.040001
-0.39552051 0.87964398 0.19046344 22.784
-0.37781906 0.98312062 0.18969247 22.528
-0.3724131 1.1580883 0.19597206 22.528
0.02818905 1.5039742 0.14217997 22.656
0.21654618 2.8407664 0.17606036 22.208
0.98073423 6.37784 0.19377877 20.608
1.054186 6.3804717 0.17997356 19.285334
1.1626998 6.3823409 0.1554421 18.517332
1.252586 6.375391 0.13232297 18.517334
1.0615615 6.4254379 0.17992893 19.200001
1.1535727 6.40943 0.1574387 18.688
1.260633 6.4159908 0.13270317 18.431999
-0.49475098 -0.23691419 0.2958191 23.552
-0.48779166 -0.15012763 0.26409087 23.68
-0.13607824 2.2878356 0.21175607 23.040001
-0.085143022 2.2970068 0.20417312 22.912001
-0.23716907 2.34496 0.22966881 22.784002
-0.1730209 2.3175111 0.21864133 22.784
-0.096473433 2.3050032 0.20555279 22.784
0.73219872 6.1179242 0.24258223 20.224001
0.92711043 6.3663564 0.20740028 20.650667
-0.50611138 -0.42928943 0.37554762 23.296001
-0.5035798 -0.36520353 0.34692463 23.296
-0.49731997 -0.34957069 0.33892667 23.424
-0.4970558 -0.28484449 0.31370819 23.466667
-0.52121913 -0.60699582 0.46326497 23.040001
-0.51762521 -0.57872212 0.44835818 23.104
-0.50729454 -0.49158698 0.40421194 23.040001
-0.5251928 -0.83822054 0.58673489 22.528
-0.54605412 -0.86537325 0.60354501 22.528
-0.5593856 -1.0870211 0.73149294 22.528
0.095883794 -3.2082119 2.3256845 21.76
0.0801792 -3.1940322 2.3099341 21.632
0.14863476 -3.1804147 2.3212879 21.138287
0.23684049 -3.1741431 2.3410161 20.370287
0.341322 -3.11412 2.3278844 21.087999
0.41356909 -3.1182702 2.3517194 21.76
0.37045753 -3.0953784 2.3240414 21.504
0.44437823 -3.0975707 2.3454418 21.418669
-0.64402509 -3.6274629 2.4196117 21.312
-0.59139276 -3.6335957 2.4357162 20.736
2.9272487 -0.2363608 2.4872415 21.430857
2.9249532 -0.1492447 2.4491549 21.573816
2.9514799 -0.051616751 2.4263809 21.478397
2.9627731 5.1802772e-07 2.4141972 21.247999
2.9355175 -0.25322479 2.5059683 21.504
-0.54650789 -4.3601475 2.9457338 21.76
-0.45500967 -4.3599272 2.970551 21.540571
-0.35564181 -4.3435349 2.9818654 21.138287
-0.2609019 -4.3120389 2.9870875 21.034666
-0.20737344 -4.2987075 2.9921422 20.992001
-0.17222781 -4.2780375 2.9915164 20.736
-0.071269058 -4.1579242 2.9333696 20.992001
0.76124614 -3.8413126 2.9436357 20.736
0.84768057 -3.8573873 2.9737892 20.704
0.91331822 -3.8476541 2.9827569 20.608
1.1353425 -3.7660894 2.9719875 20.48
1.2621814 -3.7466955 2.9867799 20.608
1.3634266 -3.7101188 2.9860871 20.543999
1.4261036 -3.7020435 2.996773 20.48
1.3976425 -3.6982617 2.9866807 20.48
1.4524938 -3.6770308 2.986681 20.394667
1.5245813 -3.6427648 2.9833167 20.565332
1.6142516 -3.6274841 2.9991479 20.736
2.1544468 -3.3139918 2.9860873 20.224001
2.3304811 -3.2135522 2.9985542 20.48
2.3659401 -3.1870289 2.9982574 20.48
2.4314239 -3.1373053 2.9982574 20.608
2.4785764 -3.0615728 2.976094 20.394667
2.529146 -3.0471146 2.99143 20.48
2.5602565 -2.942951 2.977608 20.48
2.5766697 -2.866478 2.9640942 20.48
2.5991442 -2.7803006 2.9552305 20.48
2.6253989 -2.7378225 2.9685593 20.736
2.6572194 -2.6374147 2.9662795 20.736
2.6858866 -2.5616524 2.9714048 20.778666
2.7080653 -2.5337257 2.9842978 20.821333
2.6882029 -2.4672811 2.9524624 20.992001
2.7210155 -2.449985 2.9779954 20.736002
2.7362766 -2.3553281 2.9714906 20.93511
2.7646708 -2.2390978 2.9684744 20.889601
2.7757478 -2.1672273 2.9633744 21.0944
2.7856867 -2.0766504 2.9515927 20.992001
2.8101881 -2.0424283 2.9628742 21.043201
2.7922559 -1.9928807 2.9373291 20.736
2.8181295 -1.997823 2.9663618 20.736
-0.24363455 -4.3328109 3.0068328 20.736
-0.16613176 -4.2970634 3.0042939 20.48
1.2566156 -3.7731323 3.003897 20.48
1.4392745 -3.7184744 3.0116148 20.48
1.4962031 -3.6899014 3.0074592 20.608
1.5352449 -3.6681433 3.0036004 20.608
1.6140507 -3.6583786 3.0199261 20.736
1.7802811 -3.5920966 3.0276439 20.565332
1.8450158 -3.5643859 3.0310574 20.479998
1.9290667 -3.5203056 3.0315025 20.309334
2.0000188 -3.5005379 3.0442665 20.224001
1.9685873 -3.4970622 3.030612 20.352001
2.0192993 -3.4826157 3.0399125 20.394667
2.1219358 -3.416851 3.0372908 20.543999
2.2409501 -3.3181779 3.0239332 20.288
2.2742174 -3.2879002 3.0193322 20.309334
2.3308084 -3.2466424 3.0185688 20.29714
2.3857369 -3.181803 3.003897 20.736
2.4376533 -3.1419423 3.003897 20.437332
-0.47188517 -0.30646372 0.0086781196 23.296
-0.48043707 -0.24597983 0.018322378 23.552
-0.48591164 -0.14433128 0.038097404 23.836445
-0.48756871 -0.081122927 0.055212863 23.859201
-0.31535766 0.063750945 0.086889796 23.881144
0 0 0.069999725 22.375805
-0.29912022 0.15400584 0.098762818 22.954666
-0.30486304 0.25874382 0.11496843 22.923639
-0.29815981 0.22412893 0.10862593 22.784
-0.30563354 0.33827487 0.13132444 22.784002
-0.40209189 0.77639568 0.23352396 23.040001
-0.39959157 0.79947686 0.24106562 23.040001
-0.3891888 0.87802541 0.26991081 22.784
-0.04661395 3.8951812 1.4389538 21.504
-0.10923689 3.9112382 1.4349251 21.247999
-0.078288168 3.9238334 1.4441315 21.504
0.034395404 3.9157035 1.467564 21.418669
3.9769406 4.2358227 2.2214229 19.519999
3.4752831 4.7881083 2.2362494 18.816
3.5373437 4.7714548 2.2447879 19.029333
3.6315193 4.7752194 2.2665918 19.327999
3.3686082 4.8580246 2.2345304 19.712
3.4624577 4.818799 2.2426102 19.327999
3.5498869 4.8097348 2.25877 18.944
3.3677588 4.9150853 2.2515495 19.455999
3.0132742 0.12507352 2.396589 21.247999
3.1489871 0.36844108 2.3939822 21.504
3.2057993 0.47921157 2.3966515 20.992001
3.2670748 0.60628039 2.3976371 21.504
3.3343534 0.75744706 2.3916481 21.247999
0.39769453 6.1458926 2.3464448 20.48
2.9923191 0.023864608 2.4246325 21.504
3.0185478 0.062725186 2.4284246 21.394285
3.0656309 0.15925729 2.4257703 21.333334
3.0943196 0.22256336 2.4217982 21.119999
3.1272259 0.27267155 2.4244907 21.205332
3.1608679 0.33415201 2.4218099 21.077333
3.1869509 0.42453688 2.404036 21.247999
3.2247787 0.46127385 2.4158721 21.247999
3.2573273 0.55102056 2.4081945 21.219555
3.3318348 0.69560361 2.4136162 21.247999
3.3484461 0.73262137 2.4117687 21.184
3.0614486 5.5801377 2.4004245 20.736
3.1802969 5.5836205 2.4227729 20.48
3.2722123 5.5782113 2.437901 20.48
3.3531187 5.5825167 2.4544044 20.672001
3.0678751 5.6344123 2.4189909 20.224001
3.1373916 5.6118293 2.4240623 20.416
3.3356028 5.6040154 2.4578428 20.48
0.471569 6.0817833 2.4694915 20.736
2.5711768 5.5828629 2.5259628 20.48
2.6490278 5.5868568 2.5295887 20.394667
2.7609878 5.5683298 2.5355172 20.288
2.8672819 5.5580974 2.5448854 20.394667
2.9340773 5.5778933 2.5268238 20.352001
2.5327885 5.6170115 2.5320232 20.224001
2.6124051 5.6016722 2.5342076 20.736
2.7242241 5.6060615 2.5494251 20.096001
2.8445141 5.6014409 2.5579 20.48
0.49254349 6.0996904 2.5206397 20.736
0.53720587 6.0874839 2.5172937 20.650667
0.64962292 6.0626755 2.5117917 20.582401
0.75211179 6.0670867 2.5182605 20.684799
0.85449582 6.0809045 2.5291154 20.582401
0.92120755 6.0634174 2.5260301 20.48
1.062355 6.0753632 2.5398781 20.544001
1.1508739 6.0668001 2.5428708 20.428799
1.2512707 6.0656605 2.5502317 20.428799
1.3466005 6.0393147 2.5479267 20.6336
1.4571121 6.0426269 2.5592282 20.428799
1.552091 6.0457616 2.5696189 20.416
1.6521411 6.0341353 2.5754123 20.351999
1.7519172 6.0314312 2.5852017 20.309334
1.8484147 6.0273428 2.5946941 20.428799
1.907675 6.0145664 2.5968502 20.736
0.57186031 6.1090517 2.5271454 20.608
1.0168116 6.1013083 2.5470345 20.48
4.469172 5.4673467 2.6555402 19.712
4.5152903 5.4701624 2.6670582 19.84
2.1347122 5.9920101 2.6172972 20.48
2.4526863 5.9920568 2.6628375 20.48
1.7775551 6.071712 2.6035421 20.48
1.9959661 6.0249763 2.6117206 20.48
2.047693 6.0198088 2.6163676 20.288002
2.1447611 6.0201254 2.6292863 20.543999
2.2494471 6.0162783 2.6422048 20.416
2.3539791 6.0234094 2.6598263 20.582399
2.4387369 6.0127769 2.6684141 20.48
4.2597899 1.7714342 2.7572169 21.504
5.0946841 4.364996 2.7865508 18.944
4.797297 2.697057 2.8967981 19.455999
5.0269589 3.4504569 2.8975167 19.072001
5.0554543 3.5536335 2.8983128 19.114668
5.071279 3.6377838 2.8956957 19.114668
5.1279869 3.8462639 2.8857462 19.114668
5.1313696 3.9087896 2.8799298 19.200001
5.184237 4.1624432 2.8775644 18.602667
5.1746869 4.2368336 2.8560157 18.431999
5.2017932 4.2313728 2.8814538 18.944
5.2362862 4.7081795 2.8524101 18.431999
5.2410336 4.8659186 2.8515177 18.304001
5.2274466 4.9157619 2.8419085 18.559999
4.9675684 5.6413193 2.8287485 18.304001
4.2914104 1.3423263 2.9238605 20.309334
4.3713651 1.4753414 2.934067 20.138666
4.3835182 1.5184627 2.9293759 20.096001
4.4264627 1.6208711 2.925832 19.968
4.5622082 1.9918041 2.9136205 20.096001
4.5925918 2.0840971 2.9099975 20.224001
4.6876297 2.2825103 2.9222672 19.84
4.6797929 2.3064647 2.9137864 19.968
4.7369628 2.4293547 2.9189672 19.712
4.794239 2.5856795 2.9208488 19.84
4.8019242 2.5602212 2.928741 19.712
4.7860074 2.6108801 2.9073842 19.968
4.808701 2.6532078 2.9122949 19.84
4.8447752 2.7034392 2.9304435 19.455999
4.8455362 2.8217216 2.9067452 19.327999
4.9243717 3.0548413 2.9073966 19.285334
4.9350953 3.1162472 2.9056382 19.200001
5.0343924 3.4554441 2.9045186 18.944
5.1016259 3.7090359 2.9043765 19.712
0.18256298 -1.4414365 0.014797121 22.528
-0.17680512 -1.1581008 0.011081412 23.040001
-0.093641885 -1.1719121 0.013586096 22.528
0.20641379 -1.030198 0.043797802 23.040001
0.43562615 -1.0921161 0.092102706 22.271999
-0.15468135 -0.77193451 0.026165936 23.936001
0.21513197 -0.79354423 0.063064329 23.487999
-0.24712956 -0.61199284 0.014763941 23.210665
-0.25045601 -0.50643158 0.011494651 21.504
-0.2839157 -0.47642645 6.6362321e-05 23.296
3.2997414e-05 0.00013411659 0.069886401 22.169109
0.83604091 -1.0696932 0.16545939 22.528
1.5892086 -1.4006176 0.29264873 18.688
1.6013188 -1.4249674 0.29197037 18.176001
1.5694772 -1.3437099 0.29196617 18.176001
1.590264 -1.073575 0.31991461 20.991999
1.6127863 -1.0034146 0.32878265 22.016001
1.5844148 -0.95105767 0.32898834 22.016001
1.6188568 -0.96027613 0.33525208 21.674667
1.593783 -0.81367427 0.34182608 19.200001
1.6488034 -0.84077275 0.35045612 18.175999
1.4722712 -0.71936667 0.32277066 11.008
1.5663291 -0.71038342 0.34342068 6.2720003
1.6301346 -0.7605865 0.35218665 7.9360003
1.6026814 -0.69931489 0.35073519 6.4000001
6.4972696 -2.5676568 1.224636 20.224001
6.5418682 -2.5371752 1.2407261 20.053331
6.529798 -2.4371157 1.2450101 20.121601
6.5487576 -2.3376393 1.2548876 20.032
6.5653987 -2.2495706 1.2663076 19.968
6.5658927 -2.1565502 1.2776732 20.160002
6.5628595 -2.0517619 1.2878879 20.0704
6.5722961 -1.9553962 1.2989794 20.138666
6.5947909 -1.9239831 1.3085046 20.096001
6.5756292 -1.8390305 1.3117968 20.224001
6.5800967 -1.7500948 1.3258679 20.352001
6.5948906 -1.6586063 1.3418344 20.288
6.6094093 -1.6342353 1.351468 20.224001
6.5830317 -1.5721359 1.3519478 20.352001
6.6116042 -1.5233361 1.3667959 20.224001
6.5999718 -1.4542861 1.3742665 20.48
6.6167412 -1.4432446 1.3769838 20.48
6.6146097 -1.3528341 1.3890929 20.48
6.6221318 -1.2939093 1.3990214 20.48
6.6205149 -1.2388947 1.4101022 20.48
6.6275697 -1.1420126 1.4247181 20.582401
6.6340466 -1.0452986 1.4437554 20.799999
6.6427064 -0.94920129 1.4624398 20.428799
6.6426306 -0.84129465 1.4808902 20.531199
6.6396875 -0.73356265 1.4979337 20.736
6.6721058 -0.75157338 1.503457 20.736
6.674386 -0.6513648 1.525033 20.531199
6.6707592 -0.54376829 1.5436827 20.736
6.6863708 -0.44852433 1.5649856 20.684801
6.6663837 -0.32984501 1.5880289 20.48
6.7084351 -0.37482107 1.584578 20.48
6.7108765 -0.25697142 1.6136997 20.582401
6.6791201 -0.15449496 1.6313299 20.608
6.725956 -0.12872852 1.648937 20.992001
6.6982036 -0.021363249 1.6584171 20.48
6.7199669 -0.064326093 1.6563869 20.565332
6.7407947 1.1785979e-06 1.6739719 20.48
0 0 0.069999732 20.941353
1.6373403 -0.39205268 0.29806259 21.247999
1.6352233 -0.23162673 0.26604494 22.570665
1.6477169 -0.13565934 0.24762769 22.7328
1.651632 -0.037240032 0.22999029 22.826666
1.6638649 2.9091936e-07 0.22425562 22.784
1.6733471 -0.7163527 0.36510026 8.1920004
1.6385025 -0.65564376 0.3506166 18.645334
1.6333047 -0.58170342 0.33541399 22.4
1.6576341 -0.44771457 0.31198487 21.247999
-0.30897033 0.062582776 0.31864181 22.912001
-0.30728489 0.14291129 0.32246211 22.848001
-0.30847749 0.2001524 0.34302869 23.040001
-0.21350448 -1.1430404 0.49777997 22.784
-0.15045904 -1.1340919 0.48789755 22.528
0.075789623 -1.1406109 0.4875544 22.528
0.14446326 -1.1353728 0.48812628 22.698668
-0.11734644 -1.3187032 0.5536015 22.528
1.0641328 -1.3066022 0.58483577 11.52
1.1239859 -1.318684 0.58632535 19.712
-0.51428115 -0.63162422 0.568555 22.912001
-0.50948519 -0.55010319 0.55606759 23.007999
-0.50245017 -0.49408555 0.54531395 23.040001
-0.49787125 -0.47510764 0.53906411 23.040001
-0.49101144 -0.34914112 0.52532703 23.167999
-0.48042941 -0.24702631 0.51015645 23.136002
-0.42357701 0.46150139 0.53294522 22.912001
-0.42334223 0.56760836 0.58324999 23.040001
1.6595069 0.55833817 0.59175134 22.528
-0.42082873 0.60632008 0.59890741 22.784
0.8617692 -1.4442525 0.65451777 22.656
1.0781144 -1.3677586 0.61014313 9.4720001
1.1164701 -1.3575162 0.60405368 14.336
-0.53920346 -1.0305978 0.64838451 22.528
-0.532291 -0.89531177 0.62024277 22.528
2.1621244 0.076079883 0.60236561 6.9120002
2.1612668 0.24119714 0.63533139 6.4000001
2.2240322 0.24634527 0.65166879 6.6560001
1.7393842 0.53914046 0.60504615 17.664
-0.41886854 0.64416361 0.61556286 22.930285
1.6851228 0.65428889 0.62086809 22.579199
-0.40637431 0.77370334 0.66632789 22.528
1.6977408 0.72037917 0.63887715 22.656
1.703456 0.73570246 0.64469767 22.784
1.7240956 0.80759734 0.66607535 14.336
-0.39047468 1.1133854 0.81610167 22.528
-0.37853473 1.2676718 0.88334423 22.528
6.473989 -3.1469202 1.2880795 20.224001
5.8835745 -3.0483644 1.2174556 21.76
6.4786668 -3.0474243 1.2691185 20.1728
6.4953327 -2.9293337 1.2476276 20.224001
6.5279565 -2.9817927 1.2617756 20.224001
5.6345634 -3.5166583 1.3385947 19.584
6.4790664 -3.5970478 1.3942835 18.944
5.6615152 -3.4834037 1.3317038 18.688
6.4709325 -3.196739 1.3027111 20.48
5.581099 -4.2068238 1.5976393 18.688
5.5917521 -4.1590734 1.579267 18.559999
5.6418018 -4.1683426 1.5807168 18.944
6.068584 -4.1476498 1.5647541 16.639999
5.6323466 -4.0783486 1.5452906 19.797333
1.0469552 -4.3189321 1.6932987 20.864
1.0826385 -4.293457 1.6873802 20.992001
1.211102 -4.2795072 1.6945853 20.736
5.5775104 -4.2462883 1.6163309 18.816
6.6976199 0.064249888 1.6855059 20.736
6.7256241 0.021516429 1.6812868 20.650667
6.7162395 0.10738669 1.6955831 20.992001
5.6673827 -4.65347 1.7852108 19.712
5.7126999 -4.6449995 1.77431 18.688
5.6993833 -4.5889268 1.751917 18.944
5.7192354 -4.5599127 1.7365556 18.816
1.065457 -4.3422556 1.7031629 21.247999
1.1693084 -4.3156629 1.7032485 20.864
1.2042392 -4.3077826 1.703849 20.736
1.3451475 -4.3273726 1.7253174 20.809143
1.4558247 -4.3318853 1.7393353 20.809143
1.5350314 -4.3210835 1.7450212 21.077333
1.6157348 -4.3276834 1.7573729 20.608
1.2761624 -4.2987852 1.7079662 20.736
6.7525077 0.086370632 1.7042861 20.736
6.7526264 0.36740527 1.7561116 20.650667
6.7570276 0.45447254 1.7795355 20.582401
6.7576847 0.54134339 1.793466 20.309334
4.8842897 -4.8183608 1.8928865 18.688
4.7396507 -4.7968264 1.8949295 18.688
4.8798037 -4.7527189 1.8714349 19.200001
4.9698825 -4.7635894 1.8689128 18.517332
5.0641303 -4.7616196 1.8655604 18.944
5.1477399 -4.7581038 1.8577887 18.858667
5.2300677 -4.7472129 1.8454771 18.304001
5.3539672 -4.7209158 1.8264722 18.431999
6.7929683 0.58792454 1.8145268 19.455999
6.8106093 0.89801836 1.8838887 19.968
6.7718234 0.9480238 1.8881614 20.543999
4.6735201 -4.8061171 1.9035287 12.672
4.7196159 -4.8071995 1.9042233 16.896
6.7839622 1.0605857 1.9169204 20.48
6.8263726 1.0486554 1.9239124 20.48
6.7953234 1.1851341 1.9480956 20.48
6.7938938 1.2858754 1.9725798 20.224001
6.8274512 1.2357769 1.9667549 20.480001
6.8474774 1.341435 1.9957094 20.48
6.8389406 1.3852551 2.0044041 20.48
6.8373413 1.4533141 2.020813 20.224001
6.8651285 1.5512942 2.0473499 20.224001
6.862227 1.6547248 2.0712955 20.326401
6.8628712 1.7363994 2.0910971 20.223999
2.3734679 -5.1633673 2.1457636 11.008
2.5478826 -5.126502 2.1561251 13.312
2.3504603 -5.0705328 2.1114533 10.496
2.510416 -5.0919056 2.1437049 13.568
6.8504262 1.7916163 2.103337 18.431999
6.9004478 1.7811445 2.1105669 19.455999
6.874917 1.8568696 2.1208787 19.584
6.8778348 1.9523908 2.1453774 20.16
2.6677923 4.2973375 2.2044477 20.48
2.7362058 4.2842684 2.2059813 20.48
2.8593781 4.2932782 2.2188275 19.712
2.9424181 4.2977843 2.2256887 19.712
1.547148 4.399725 2.2306364 20.224001
1.849614 4.3930707 2.218581 20.352001
1.9512613 4.3919802 2.2163908 19.968
2.0198708 4.3941145 2.218739 20.096001
2.1496167 4.3776875 2.2134285 19.904001
2.2517791 4.3819199 2.2188482 19.712
2.3488991 4.3696618 2.2193112 19.9168
2.416379 4.3606582 2.215965 20.138666
2.5539236 4.3482618 2.2231514 20.181334
2.6354578 4.3219342 2.2141581 20.223999
2.7244368 4.3265848 2.2245138 20.224001
2.8381047 4.3059397 2.2229772 19.968
2.9839289 4.3138514 2.236197 19.712
3.3044221 4.3620982 2.2858765 19.712
3.4432311 4.3541851 2.2930205 19.392
3.5398116 4.3321323 2.2929702 19.456001
1.4512402 4.4663701 2.2690635 19.882666
1.524498 4.4485636 2.25406 19.775999
1.64192 4.4192734 2.2354491 20.16
1.8893191 4.4230771 2.2313399 19.968
1.9454406 4.4104514 2.2243469 20.138666
2.0052934 4.4181409 2.2324464 20.224001
2.1119046 4.4072971 2.2257247 19.712
2.250633 4.4040508 2.228966 20.224001
-0.10610998 4.2810268 2.3659604 20.736
-0.058081038 4.277195 2.3518558 20.608
-0.048241589 4.312459 2.3673804 20.48
3.4583445 4.3733902 2.3027885 19.455999
3.584198 4.3438168 2.3052106 19.327999
3.6501861 4.3524771 2.3094912 19.200001
3.311636 4.4007854 2.3001387 19.712
6.8566384 3.3601055 2.4799483 19.712
6.8538804 3.4132292 2.4930465 19.712
6.8668008 3.474637 2.511924 19.797333
6.8700056 3.5873575 2.5422695 19.712
6.9065905 3.5644131 2.545975 19.712
6.8801479 3.6488686 2.5542736 19.584
6.8989358 3.7297657 2.585 19.712
6.9089403 3.7352262 2.5853519 19.584
6.8811445 3.8058956 2.5983622 19.712
6.9041271 3.7898283 2.6023414 19.455999
6.8934946 3.8560383 2.6163597 19.456001
6.9147034 3.9408016 2.6469941 19.626665
6.8713889 4.003902 2.6472819 19.455999
6.9214973 4.0529618 2.6761563 19.626665
6.8813539 4.1284981 2.6910377 19.455999
6.5464745 4.3374085 2.6883664 19.455999
6.8867288 4.1617274 2.7049742 19.712
6.938724 4.132802 2.7009878 19.712
6.9293399 4.2482476 2.7316341 19.370667
6.8765411 4.3685884 2.7551455 18.431999
6.9107037 4.3389015 2.755996 18.688
6.4546838 4.5801191 2.7562118 17.408001
6.5760455 4.525404 2.7622809 17.664001
6.4622059 4.6165953 2.7722692 17.92
6.1407933 4.7687898 2.7644081 18.005333
6.2103801 4.7594795 2.772558 18.176001
5.9394617 4.8609962 2.760577 17.92
6.0682831 4.8222651 2.7705188 17.92
6.1019301 4.8014827 2.7652128 17.92
5.579381 4.9834433 2.7603812 17.792
5.6321855 4.9822674 2.7710369 17.664
5.3847704 5.0793648 2.7803476 18.431999
5.4667029 5.0665469 2.7845039 17.983999
5.5251975 5.0258217 2.7744827 18.090668
4.9074888 5.1445804 2.7664158 18.688
5.3819709 5.109344 2.7936051 18.176001
4.7669802 5.2266598 2.7901423 18.688
1.2631407 5.4480753 2.7923789 20.736
1.3011535 5.4532895 2.7937686 19.968
4.7416778 5.2661514 2.8073566 18.773333
4.8488679 5.2485995 2.8092673 18.261332
0.23722245 5.39189 2.891196 19.456001
0.27299726 5.4161859 2.897696 19.200001
0.35092151 5.4119968 2.8846805 19.413332
0.4479599 5.42838 2.8804255 19.455999
0.54667008 5.4520345 2.8823164 19.4048
0.64773571 5.4545832 2.8686395 19.492569
0.76266783 5.4797616 2.8615441 19.660799
0.82761878 5.436399 2.8326271 20.053335
1.1215539 5.4699135 2.8172824 19.712
1.2503052 5.4923863 2.8173831 20.096001
1.1328099 5.5245967 2.8420436 20.48
0.29107386 5.4294519 2.9050934 19.455999
0 0 0.069999725 22.110922
1.7009182 1.0688254 0.09388902 20.992001
2.211118 1.850669 0.011371821 18.944
1.619993 0.17412883 0.19902377 22.528
1.6543591 0.26958242 0.19464266 22.591999
1.6831908 0.34643477 0.19116421 22.591999
1.6901106 0.41889003 0.1843791 22.528
1.6839751 0.59957254 0.16402435 22.528
1.6931602 0.66455364 0.15728122 22.271999
1.7136555 0.66101813 0.15955351 22.442667
1.7109983 0.76487166 0.14516531 22.144001
1.719584 0.86297029 0.13275366 21.76
1.7088382 0.99541885 0.10869351 21.504
1.6489457 0.061183762 0.21405181 22.783998
1.6374696 0.13799819 0.2035557 22.528
-0.3178612 0.079824209 0.097338773 23.210665
0 0 0.069999725 21.902645
-0.30502295 0.11021604 0.090931408 23.040001
-0.29334152 0.17584229 0.080939911 22.869333
-0.29129991 0.2566233 0.066949069 23.040001
-0.28887898 0.34425661 0.053481199 22.784
-0.30405104 0.40388745 0.048461862 23.040001
-0.2764875 0.47133994 0.045458958 23.040001
-0.39299214 0.81188071 0.027411036 23.040001
-0.50283253 -0.2218962 0.17898318 23.68
-0.49023479 -0.24535923 0.18404113 23.615999
-0.48868784 -0.14902875 0.1601741 23.790936
-0.48388329 -0.071928695 0.14534622 23.637335
-0.3287321 0.029692149 0.10749189 23.478857
-0.50439614 -0.57853687 0.28468254 23.296
-0.50735855 -0.44178972 0.2425184 23.244799
-0.49503928 -0.44533062 0.24309176 23.296
-0.49163148 -0.34115449 0.21190536 23.552
-0.51523203 -0.64502227 0.30740559 23.040001
-0.20694327 -1.1491762 0.49905759 22.528
-0.16880819 -1.1209779 0.49594995 22.528
-0.54263818 -1.043555 0.44321483 22.656
-0.050752349 -1.3093097 0.59033626 22.656
-0.20757401 -1.1527156 0.50088733 22.528
-0.15346837 -1.1565042 0.5104028 22.784
0.1706568 -1.127218 0.5640226 22.528
0.87891078 -4.4897766 2.0922201 20.736
0.90095586 -4.4884901 2.097754 20.736
1.0269004 -4.3240595 2.0794632 19.968
0.93649411 -4.5160499 2.1227524 20.736
1.1836663 -4.3334174 2.1316118 20.053335
1.2224278 -4.3388577 2.1499496 20.352001
1.4309615 -4.521409 2.2903254 21.247999
2.4354477 -3.3504024 2.2581258 20.736
1.4820589 -4.5236182 2.3093975 21.333334
1.5491092 -4.5351896 2.3368793 21.350399
1.6425258 -4.5282826 2.3693416 21.174856
1.7226661 -4.5230513 2.3985336 21.247999
2.7084327 -3.3521891 2.393368 20.736
2.7215805 -3.2418683 2.3780148 20.940802
2.7432506 -3.1617851 2.3718369 20.906668
2.7719615 -3.0348637 2.3597014 20.650667
2.7954288 -2.9642091 2.3602653 20.992001
2.8259842 -2.9304895 2.3721404 20.778666
2.844764 -2.8210521 2.3667166 20.736
2.8549316 -2.7510188 2.3549595 20.992001
2.8794348 -2.6732118 2.3612556 20.992001
2.912641 -2.644711 2.3786132 20.992001
2.919198 -2.5719168 2.3722806 20.928001
2.9314983 -2.4369142 2.3668954 21.077333
2.9459188 -2.3551161 2.3668652 21.034668
2.9649322 -2.238869 2.3712118 21.247999
2.9689486 -2.1512871 2.3658309 21.101715
2.9748888 -2.0421803 2.3679886 21.162666
2.9903252 -1.9250082 2.3708112 21.375999
2.9917779 -1.8543504 2.3703146 21.247999
3.0108421 -1.8572593 2.3844414 21.418665
2.9827998 -1.6442691 2.3559766 21.504
3.0236392 -1.6293417 2.3859715 21.555201
3.0244763 -1.5450749 2.3854003 21.447109
3.0317118 -1.4452076 2.3868699 21.504
3.0381167 -1.3716874 2.3936381 21.452801
3.0336349 -1.2718805 2.3899879 21.375999
3.0334113 -1.1539707 2.3873954 21.407999
3.0372336 -1.0368346 2.3886259 21.461334
3.0429671 -0.95260388 2.389122 21.357714
3.056958 -0.83731729 2.3959877 21.418665
3.0459278 -0.75124794 2.3845034 21.247999
3.0689361 -0.64479417 2.3922987 21.276443
3.0723419 -0.54616958 2.3857706 21.418665
3.0773664 -0.43961319 2.381803 21.76
3.0961211 -0.35697389 2.3877707 21.247999
3.102529 -0.36023384 2.3928428 21.247999
3.1128669 -0.25116205 2.3925445 21.312
3.1270676 -0.039874841 2.3958266 21.632
1.7594845 -4.5410681 2.417625 21.196798
1.8471663 -4.5422659 2.4495289 21.196798
1.9275467 -4.5397177 2.4773824 21.043201
2.6898937 -3.4513419 2.4160471 20.736
2.7096219 -3.4427769 2.4222121 20.672001
2.7115233 -3.3779914 2.4009604 20.48
3.0545604 -1.0300436 2.4026196 21.247999
3.0627863 -0.94306654 2.4040492 21.504
3.0734272 -0.75282294 2.4044912 21.290667
3.0830576 -0.67917186 2.4046633 21.504
3.0926595 -0.57092059 2.40415 21.439999
3.1142883 -0.53648591 2.4163775 21.504
3.1085618 -0.45624653 2.4066281 21.299198
3.120008 -0.34964061 2.4049058 21.357714
3.134496 -0.24534097 2.4083157 21.357714
3.1421056 -0.14753672 2.4094241 21.504
3.1447616 -0.085258074 2.4095521 21.375999
3.1431124 5.4955922e-07 2.4074633 21.504
1.9962548 -4.5614047 2.5126727 21.119999
2.0525198 -4.5605054 2.5339954 21.043201
2.1577151 -4.5591097 2.5699635 20.882284
2.6352909 -4.0299191 2.5712934 20.736
2.2890537 -4.5701537 2.626395 20.736
2.3464615 -4.5747881 2.6483884 20.992001
2.4404445 -4.5770102 2.6891627 21.0944
2.6287782 -4.3142471 2.6747358 20.224001
2.6427789 -4.2152762 2.6447959 20.736
2.6481128 -4.1792517 2.6329033 20.352001
2.5790462 -4.6217341 2.7577846 20.992001
2.4993951 -4.5814452 2.7152941 20.736
2.5543792 -4.5773983 2.7333283 21.120001
2.606653 -4.5680027 2.7536092 20.736
-0.16169269 -0.76467514 0.037101135 24.149332
-0.23802878 -0.61665452 0.069239356 23.296
-0.27241778 -0.59559739 0.078793541 22.528
-0.31127062 -0.46969065 0.094439268 23.296
0 0 0.069999725 22.472397
-0.51078886 -0.64889699 0.1160602 23.082666
-0.50663227 -0.57668966 0.11802489 23.210669
-0.47240546 -0.35566977 0.11967876 23.210669
-0.5020445 -0.25833085 0.13197179 23.808001
-0.4946506 -0.27373493 0.12925582 23.552
-0.48511693 -0.14786892 0.14206526 23.808001
-0.48563272 -0.08637508 0.14952683 23.808002
-0.32267439 -0.025839694 0.12848391 22.144001
-0.31182778 0.06442716 0.15963097 23.040001
-0.30363807 0.13705845 0.18670705 22.976
-0.28637797 0.13710949 0.18294978 22.784
-0.29922897 0.19556776 0.20181921 23.040001
-0.31308311 0.27103734 0.22280878 22.954666
-0.31437311 0.34940195 0.24333706 22.937601
-0.31040144 0.41458508 0.26098213 22.784
-0.29274642 0.49124357 0.2808761 22.528
-0.40725005 0.82018083 0.40767857 22.784
-0.4001914 0.90923107 0.43979129 22.784
-0.39406538 0.91921818 0.44318262 22.656
-0.37925759 1.0787294 0.51776183 22.528
3.1286328 0.014967968 2.3967216 21.247999
-0.045696773 4.0898962 2.3908315 20.799999
-0.11303218 4.1681299 2.3927965 21.119999
-0.085517526 4.1241112 2.3866103 20.608
3.1593475 0.061290402 2.4200943 21.504
3.1804175 0.1523183 2.4380167 21.375999
3.1789861 0.25401452 2.4417763 21.375999
3.1802711 0.35134351 2.4495671 21.390221
3.1567168 0.44467676 2.4408813 21.311998
3.1482701 0.54343373 2.4460132 21.3248
3.091933 0.68129903 2.4245701 21.589333
3.12058 0.64594388 2.4399264 21.299198
3.0668406 0.75380027 2.4187164 21.504
3.039459 0.84432429 2.4160888 21.410908
3.0396342 0.95035565 2.4503708 21.617775
3.0499513 1.0125532 2.4926233 21.504
3.0482113 1.0662315 2.523994 21.407999
3.0409377 1.1387538 2.5659146 21.247999
3.0699208 1.1793685 2.6110651 21.504
3.0660689 1.2420127 2.6515074 21.247999
3.0697641 1.3046427 2.6924999 21.247999
3.0744109 1.3554484 2.7322304 21.056002
3.0768764 1.4251757 2.7827177 20.928001
3.0807369 1.4689422 2.8161666 20.906668
3.088913 1.5460534 2.8770707 20.736
3.0750656 1.6394973 2.9332359 21.034666
2.9813983 1.7382673 2.9516008 20.650667
3.0293474 1.7147793 2.9625936 20.799999
1.6450505 3.1396267 2.9807806 20.309334
1.5740652 3.2392738 2.9906647 20.309332
1.6086609 3.2139864 2.999893 20.224001
1.4758497 3.358077 2.9844773 20.394667
1.5140851 3.3243072 2.9899561 20.224001
1.3937473 3.478003 2.9927499 20.48
1.4057081 3.4598389 2.9923301 20.608
1.3708301 3.5179305 2.9965537 20.48
1.2661555 3.6342394 2.9863203 20.416
1.1663393 3.7612939 2.9852421 20.297144
1.2080331 3.7179589 2.9959307 20.224001
1.0612662 3.8903358 2.9785612 20.608
1.1155055 3.8236668 2.9802513 20.48
0.97792751 3.9559474 2.9619436 20.352001
1.0306482 3.9257174 2.9809804 20.352001
0.88577396 4.0818067 2.9720087 20.48
0.94088751 4.0248895 2.9764862 20.394667
0.83856136 4.1414633 2.9757769 20.553144
0.74723446 4.2159882 2.9604311 20.352001
0.59875768 4.3901281 2.9655337 20.48
0.64864677 4.3424325 2.9682305 20.370285
0.4962979 4.4921255 2.9498227 20.48
0.54944652 4.4530749 2.9658368 20.297144
0.39608175 4.5880914 2.9451656 19.968
0.4489201 4.5510602 2.956188 20.138668
0.34210873 4.6550293 2.9469588 20.096001
0.19861622 4.7875028 2.9353557 20.48
0.25382978 4.7480874 2.9469111 19.904001
0.093379647 4.8790345 2.9275041 20.224001
0.16915219 4.8201432 2.9391356 20.224001
0.21451402 4.8009305 2.9487944 20.224001
1.5769551 3.2603722 3.0062873 20.160002
1.4903742 3.3715227 3.0050573 20.48
1.5080403 3.353476 3.0022726 20.736
1.3874416 3.5108147 3.0054145 20.224001
1.3104947 3.6164899 3.0116615 20.224001
1.2251562 3.7101521 3.0037284 20.48
1.6234597 -0.20781571 0.014103164 22.784002
1.6493982 -0.15188135 0.024370922 23.08267
1.6844776 -0.052239209 0.045837626 23.495113
-0.017031914 0.085182302 0.011017893 22.271999
2.2625429e-05 5.2426138e-05 0.069961652 22.451126
1.6709645 2.9216071e-07 0.059103459 23.296
0 0 0.069999732 21.901388
1.6617968 0.074686311 0.07519187 22.930285
1.6560302 0.1719467 0.0945995 22.783998
1.6493185 0.20271766 0.099962249 22.784
1.6471411 0.25590006 0.11074147 22.556444
1.6585276 0.35247532 0.12767024 22.528
1.6974039 0.43225771 0.14058647 22.528
1.7119155 0.47871876 0.14756049 22.528
1.7216024 0.50604588 0.1524273 22.528
1.682572 0.7213341 0.18038321 22.271999
-0.30422541 0.031575937 0.23903887 22.954666
-0.29734084 0.051117949 0.23195104 22.784
-0.31165719 0.14000784 0.23805623 22.954666
-0.2978386 0.23608455 0.23417145 23.040001
-0.30627644 0.38765422 0.259103 22.784
-0.30850896 0.43705758 0.26960936 23.040001
-0.29945779 0.46053708 0.27113578 22.784
-0.30344242 0.52880549 0.2895256 22.784
1.6949379 0.87483412 0.20264292 21.76
1.7147256 0.87473011 0.20238031 21.632
1.6939436 0.92439955 0.21165566 21.247999
1.7189338 0.99000788 0.22248188 20.992001
1.7230506 1.1205084 0.24706133 22.015999
1.7520145 1.2201043 0.26628211 9.7279997
-0.4800885 -0.11069137 0.39328155 23.552
-0.4774746 -0.074151747 0.37398317 23.487999
-0.39664608 0.75664425 0.37464795 23.040001
-0.40424699 0.83120191 0.39720899 22.912001
-0.48621899 -0.3167792 0.47986695 23.167999
-0.4882184 -0.23578289 0.45157295 23.270403
-0.48940554 -0.15713914 0.41971666 23.424
-0.39082178 0.89586532 0.41348168 22.784
-0.50240755 -0.447016 0.54505342 23.040001
-0.49551639 -0.42095381 0.52930486 23.0912
-0.49421409 -0.39559898 0.51707512 23.210665
-0.52189261 -0.68934309 0.68061811 22.656
-0.53355765 -0.80369663 0.75128484 22.784
-0.54786766 -0.91725975 0.83318043 22.528
7.1253495 5.1148796 0.89673996 19.200001
2.435302 4.2580172e-07 0.92792058 4.3520002
7.0940032 5.1955252 0.91923165 19.200001
7.1178398 5.1610641 0.90892398 19.584
6.8501129 5.2548189 0.94228154 19.136
6.9524803 5.2201204 0.92983997 19.071999
7.0594549 5.2220311 0.92486364 19.327999
6.8519392 5.3607545 0.96752805 18.688
6.8474665 5.4276896 0.9849807 19.072001
0.16457579 3.8848641 1.0659685 21.162666
0.24581222 3.8837934 1.0479065 21.0944
0.068553373 3.9229696 1.0979615 21.119999
0.15842861 3.9091244 1.073405 21.056
0.20536914 3.914711 1.063377 20.992001
6.8462095 5.5878987 1.0193914 19.200001
6.8661957 5.6589737 1.0362608 18.816
6.8662987 5.7512832 1.0600728 19.199999
6.8799686 5.8562422 1.0827271 19.072001
-0.1174291 3.8901575 1.1424986 20.992001
-0.018567873 3.897728 1.1152115 20.864
-0.10558461 3.9095054 1.1412809 20.992001
-0.060117874 3.9124687 1.1311117 20.949335
0.028643841 3.9213111 1.1099563 21.043201
4.369102 5.4583249 1.1979885 20.224001
4.4491577 5.4509254 1.1913269 20.160002
4.5495243 5.4667711 1.1810836 19.84
5.8670783 5.9894862 1.1991823 19.200001
6.0891924 5.9837275 1.1797849 19.200001
6.2293711 5.967804 1.1577882 19.200001
6.3671875 5.9844737 1.1582189 19.114668
6.4349203 5.9526215 1.1480322 18.944
6.5398507 5.9539685 1.1369852 19.029333
6.6467643 5.9364142 1.1243349 19.114668
6.7294726 5.9339681 1.1175212 18.688
6.8422089 5.9374151 1.1100837 19.072001
5.922863 6.0081382 1.1996511 18.944
6.072433 6.024353 1.1952794 19.456001
6.3043475 6.0013433 1.1675464 18.944
3.2827296 5.4960623 1.2952809 20.48
3.4005337 5.4931974 1.2859888 20.48
3.5618026 5.4777088 1.2634953 20.736
3.6752901 5.4980969 1.2622935 20.736
3.7440825 5.4869838 1.2570553 20.138666
3.8684216 5.4802289 1.2439643 20.394667
3.9496388 5.4654226 1.2403548 20.352001
4.0774732 5.4756517 1.2306356 20.48
4.1442418 5.4649897 1.2157264 20.16
4.20152 5.4950781 1.2186915 20.224001
4.3413095 5.4768929 1.2057929 19.968
3.2340264 5.5134916 1.2959448 20.608
3.3457305 5.5214524 1.2936782 20.565332
3.4476612 5.5201416 1.2872298 20.543999
3.5371215 5.516016 1.2773113 20.394667
3.7554975 5.5037394 1.2633141 20.352001
3.8489645 5.5269384 1.2575808 20.736
3.9422417 5.5102439 1.2485883 20.224001
5.3736973 6.055181 1.2648458 19.200001
5.4612312 6.0562854 1.2597375 19.114668
5.6644797 6.0330639 1.2384464 19.114668
5.7205076 6.0669584 1.2451756 18.944
5.86132 6.0217552 1.2148803 19.200001
5.9551821 6.0026622 1.2021726 19.455999
6.014051 6.0236111 1.2030741 18.944
2.4811633 5.5664382 1.3385472 20.224001
2.5498841 5.5770187 1.3405619 20.684799
2.6530607 5.56709 1.3329408 20.736
2.7487609 5.5617995 1.3278837 20.608
2.8495896 5.5554729 1.3207419 20.736
2.9592242 5.5503049 1.3169539 20.684801
3.0509193 5.538744 1.307125 20.48
3.1801429 5.5419827 1.3031126 20.48
3.2521963 5.5443182 1.3028157 20.352001
0.97617841 6.3525853 1.5837193 20.224001
0.67319399 6.3984923 1.6374792 20.48
0.83749765 6.3941231 1.6097049 20.736
0.69697112 6.4281969 1.6452906 20.48
0.75893879 6.4276323 1.6321503 20.582401
0.85608107 6.4302788 1.6171011 20.565332
0.90116 6.4055271 1.6039624 20.48
1.4571042 6.8478756 1.6736284 15.743999
1.5408962 6.8659425 1.6681578 15.974401
1.8580947 6.8833809 1.6556607 15.808001
2.0585387 6.8818903 1.6458584 15.104
2.2360871 6.8745298 1.6443038 16.384001
2.3884442 6.8934422 1.6470492 16.896
2.4074233 6.8775172 1.6451476 16.128
2.0885921 6.9024282 1.6520727 15.872
2.2112513 6.9479561 1.663729 16.128
2.3747783 6.9250331 1.6525426 16.896
2.4701357 6.9154358 1.6495367 16.469332
5.7725558 -1.0425913 2.2587223 18.048
5.8056006 -1.0152358 2.2587597 17.664
2.7989106 -2.329272 2.3981483 21.247999
2.8937023 -2.3087182 2.3970189 21.119999
2.9355342 -2.28913 2.3861997 20.992001
3.1185069 -2.2611923 2.3895659 21.247999
6.5087833 -0.64301693 2.396698 20.223999
6.5334101 -0.54081893 2.3894053 20.352001
6.5417795 -0.44745255 2.3856349 20.3776
6.5452776 -0.36946493 2.3851357 19.712
6.5726309 -0.24020824 2.3870003 20.032001
6.5797224 -0.15156297 2.3885784 20.223999
6.5753508 -0.083551593 2.386585 19.968
-0.57393235 -2.9003966 2.4539263 21.247999
-0.64986044 -2.8847847 2.4437385 21.589333
-0.57886189 -2.8929605 2.446348 21.248001
2.7569687 -2.407795 2.4580684 21.375999
2.7780263 -2.3647211 2.4250073 21.375999
2.8734856 -2.3226225 2.4044662 21.119999
2.9271605 -2.3126798 2.4030759 21.247999
6.5038524 -0.91499209 2.4519672 20.224001
6.5186672 -0.85383075 2.4443388 20.352001
6.4939404 -0.71453613 2.4053845 20.224001
6.5229712 -0.77020335 2.4264929 20.352001
6.541399 -0.66370684 2.4127944 20.138666
6.5464406 -0.59428144 2.4027166 20.224001
6.6152368 -0.12609512 2.4008725 20.224001
2.7527959 -2.5195608 2.5511696 21.247999
2.7483912 -2.4783671 2.514926 20.992001
2.7273929 -2.671685 2.6708927 21.077333
2.7404027 -2.5921447 2.6080313 21.119999
6.4478631 -1.5225261 2.6760523 20.224001
6.4722214 -1.4525484 2.6469786 20.416
6.4367123 -1.3802743 2.6042409 20.48
2.7272682 -2.8108373 2.7911325 20.736
6.4313827 -1.7250905 2.7811198 20.224001
6.4513474 -1.6538303 2.7477756 20.326401
6.4635901 -1.580562 2.7110162 20.224001
0.24751294 -3.3095582 2.8010006 20.48
2.7330658 -2.8711317 2.8404551 20.736
6.214541 -1.999604 2.8840625 18.944
6.4213848 -1.9207883 2.8923213 19.968
6.4303665 -1.8459065 2.8485541 20.326401
6.4347725 -1.7699174 2.8051646 20.352001
-0.35245308 -3.5870788 2.9930019 20.394667
-0.22890589 -3.5982111 2.9953935 20.224001
-0.043337192 -3.5848165 2.9889705 20.326401
0.090933651 -3.5775986 2.996542 20.224001
0.14182036 -3.5698242 2.9961178 19.968
0.3583383 -3.5248928 2.993844 20.224001
0.42012292 -3.5101886 2.9927797 20.224001
0.50764555 -3.4878452 2.993093 20.48
0.6348052 -3.4365618 2.9796953 20.352001
0.77306449 -3.4192851 2.9955661 20.096001
0.83216411 -3.4030542 2.993644 20.224001
0.84001446 -3.3884702 2.9833922 19.968
1.0730741 -3.3349957 2.9982538 19.968
0.87154591 -3.2909527 2.915524 19.712
1.3632872 -3.2080827 2.9835038 20.48
1.9701139 -3.1488831 2.9904127 20.224001
2.1545234 -3.1252778 2.993782 20.48
2.2355444 -3.1142247 2.9900341 20.565332
2.3498988 -3.093699 2.991699 20.48
2.4606354 -3.0871532 2.9919083 20.565332
2.5607316 -3.0668812 2.9869366 20.736
2.6565073 -3.0592802 2.9877346 20.940802
2.7165644 -3.0415809 2.9830301 21.247999
2.7133579 -2.9898582 2.9423537 20.864
4.1117778 -2.7297137 2.9346128 20.223999
4.256506 -2.7134526 2.9466202 19.968
4.2477131 -2.695303 2.9283338 19.968
4.3569007 -2.6874287 2.945384 19.916801
4.455637 -2.6564755 2.938976 19.584
4.5516748 -2.6213689 2.9329829 19.6096
4.6422901 -2.6053579 2.9425552 19.712
4.6712713 -2.5827298 2.9317875 19.712
4.7776237 -2.543349 2.9265735 19.584
5.10499 -2.4527307 2.9271045 19.327999
5.2581911 -2.4040585 2.9256859 19.456001
5.3574963 -2.3725901 2.9249976 19.327999
5.5346851 -2.3105855 2.9215493 19.200001
5.7972546 -2.2278233 2.9240968 18.944
5.8288984 -2.2081649 2.9228885 18.944
5.8451376 -2.1825366 2.914155 18.688
6.1460729 -2.0748923 2.9209337 19.007999
6.2284241 -2.0368352 2.9125953 19.200001
6.3734388 -1.9617234 2.9021266 19.200001
6.4093413 -1.9505064 2.9031866 19.455999
-0.51415187 -3.6130168 3.026408 20.394667
-0.44410208 -3.6129873 3.0189741 20.443426
-0.36472443 -3.6182868 3.0195827 20.288
-0.27015081 -3.6117792 3.0087299 20.351999
-0.13203613 -3.6128752 3.0125999 20.309334
-0.048739862 -3.6102445 3.0099788 20.416
0.03062945 -3.6128576 3.0199363 20.224001
-0.53473186 -3.593806 3.0133989 20.48
-0.48839852 -3.5956905 3.0096221 20.48
-0.30944902 -3.5991952 3.0010641 20.736
-0.17734358 -3.5989478 3.0028152 20.096001
0.022862602 -3.5987418 3.0083411 20.48
0.14894462 -3.5857787 3.0081837 20.260571
0.36311516 -3.5415046 3.010287 20.138666
0.45988309 -3.5224617 3.0133314 20.128
0.56499773 -3.4918478 3.0127804 20.053335
0.7415123 -3.4428113 3.0091128 20.150858
0.9735989 -3.3917315 3.0194173 20.224001
1.053174 -3.3552804 3.0094769 20.16
1.1498245 -3.3356068 3.0190969 20.32
1.2724988 -3.3113389 3.03513 20.288002
1.2506696 -3.2908218 3.0125763 20.394667
1.3379104 -3.2777069 3.0291288 20.297144
1.4529015 -3.227421 3.0283959 19.968
1.5699527 -3.2151465 3.060622 20.416
1.6460983 -3.2016845 3.0790598 20.48
1.4796379 -3.1958718 3.0136456 19.84
1.6665591 -3.1830654 3.0731812 20.480001
1.7184721 -3.1553228 3.0731277 20.416
1.8070546 -3.1260891 3.0880382 20.224001
1.9541515 -3.1679459 3.0042384 20.394667
2.0150082 -3.1644921 3.0126791 20.352001
2.1443634 -3.1532981 3.0165298 20.479998
2.2164421 -3.1399627 3.0092278 20.352001
2.3855562 -3.1097631 3.0058241 20.48
2.5322769 -3.1025081 3.014972 20.736
2.4714291 -3.097621 3.0028539 20.48
2.6619594 -3.0774484 3.0048888 20.992001
1.8096625 -3.1537607 3.1092017 20.565332
-0.45988309 0.096683115 0.00082686543 23.552
0 0 0.069999725 22.153097
-0.44895253 0.10592645 0.0040740445 23.296001
-0.31197312 0.20811935 0.034844439 22.869333
-0.29427356 0.24325363 0.040635411 22.784002
-0.30057439 0.31511942 0.048768338 23.040001
-0.29012698 0.32341817 0.052289255 22.912001
-0.30587947 0.41674763 0.063059144 22.784
-0.40425017 0.72930932 0.085674882 23.040001
-0.39951038 0.72618759 0.086852662 23.040001
-0.38378724 0.99542749 0.11955275 22.784
-0.35974416 1.151179 0.13808018 22.528
-0.36567727 1.3155135 0.15443113 22.784
0.020333121 1.5520915 0.21150427 22.784002
-0.139411 2.2918172 0.26336229 22.784
-0.086206801 2.2845423 0.26721489 22.954666
-0.21211523 2.3475471 0.2630161 23.040001
-0.12697124 2.3120027 0.26605001 22.835199
0.67334837 6.3772597 0.73405707 20.992001
0.76336402 6.3872352 0.74444342 20.821333
0.84578115 6.3866687 0.75379896 20.736
0.96086371 6.3727326 0.77237892 20.608002
1.0646966 6.373476 0.78677797 18.304001
0.69800836 6.4156322 0.73828018 20.992001
0.74880016 6.4088078 0.7431801 20.608
0.86406362 6.4203744 0.76094383 20.736
0.94946593 6.412014 0.77307588 20.650667
1.0556384 6.4444351 0.79354161 18.688002
2.0763788 0.046165757 0.80165803 8.448
2.1877279 0.023176968 0.84075516 8.5333328
2.2132866 0.0831277 0.85028023 18.944
2.2114415 0.1089309 0.8500033 22.271999
2.2290802 0.23088665 0.85947299 9.2159996
1.1976856 6.3585377 0.8053183 19.968
1.338783 6.3804693 0.83371001 20.096001
1.418036 6.355504 0.84293997 19.456001
1.5447551 6.3957677 0.86891752 16.896
1.1897049 6.4283276 0.80786902 19.455999
1.292151 6.4112463 0.8285026 20.224001
1.3631519 6.4121494 0.84048873 19.797333
1.4737011 6.413044 0.85618138 18.944
1.5378585 6.4267211 0.86895514 17.066668
2.4985149 5.5771632 1.0223132 20.48
2.5557785 5.5622964 1.0335287 20.787201
2.6502097 5.5721412 1.060645 20.650667
2.7398136 5.5620246 1.0898583 20.684801
2.8394384 5.5405798 1.1225361 20.736
2.9314296 5.5240993 1.1554064 20.608
3.064662 5.5393372 1.1962727 20.736
3.0871437 5.5383773 1.208105 20.736
3.1308339 5.5338073 1.2297059 20.565332
3.2689044 5.5292001 1.2823924 20.394667
2.3846171 9.0503559 1.2392133 19.455999
2.4501433 9.0647955 1.2503951 19.327999
2.5433111 9.0657673 1.2701387 19.072001
2.6460731 9.0444574 1.2827665 19.029333
2.7052543 9.0332766 1.2958037 18.944
3.3563774 5.4964371 1.3180026 20.48
3.4502985 5.4665637 1.3570199 20.394667
3.5210898 5.4309692 1.3862048 19.712
3.331991 5.5352449 1.309132 20.608
3.4354715 5.5202384 1.3489943 20.48
3.5111077 5.5109324 1.3779165 19.968
2.7563949 9.0468693 1.3067975 18.176001
3.6277437 5.3869576 1.4374566 19.712
3.572624 5.4157486 1.4135646 19.626665
3.6677592 5.4215293 1.4552189 19.712
3.9521835 5.4751878 1.5745301 20.032001
3.9390748 5.5030255 1.5710093 19.968
4.0594668 5.4849916 1.6275219 20.224001
4.1498375 5.4786463 1.6678874 19.904001
4.2575665 5.47504 1.7189485 20.096001
4.3451571 5.4612594 1.7570947 19.882668
4.4155445 5.4602866 1.7865453 19.84
4.4758215 5.4634514 1.816564 19.968
4.5305853 5.4592085 1.8388162 20.096001
4.041707 12.547475 1.8350799 7.4239998
5.4450397 1.6283094 2.0721471 18.517332
5.1503439 4.0810385 2.174511 18.944
5.3912325 6.0336528 2.1998663 19.968
5.5357347 5.721138 2.2725728 18.944
5.4914412 5.8774567 2.2468016 18.176001
5.4551716 6.046988 2.2237496 19.200001
5.5169172 6.0571661 2.2535293 19.200001
5.6685972 5.6933718 2.3337934 19.072001
5.7755337 5.6912985 2.3849916 18.944
5.5998025 5.714335 2.3011932 19.200001
5.6587801 5.7379532 2.3307533 19.200001
5.7354064 5.7058845 2.359643 18.688
6.7188106 0.79312772 2.453371 20.224001
6.6952624 0.85513288 2.4478333 20.309334
6.7113781 0.85720074 2.4535372 19.968
6.680841 0.93965209 2.4467256 20.48
6.7242169 0.96032929 2.4628963 20.480001
6.6918135 1.093399 2.4586875 20.224001
6.7340236 1.0454965 2.4707322 20.224001
6.7400403 1.1563493 2.4791219 20.288
6.7503085 1.2466143 2.4882593 20.352001
6.7500062 1.3353319 2.4940188 20.309334
6.725821 1.4419004 2.4932435 20.224001
6.4742689 1.6702018 2.4254606 21.504
5.8494606 5.6733413 2.4167845 18.688
5.9525414 5.6822672 2.4570704 18.944
5.8505845 5.7106009 2.4177079 18.688
5.9166498 5.7021546 2.4432914 19.200001
6.7817602 1.3864478 2.508528 19.968
6.7773871 1.4380082 2.5107431 20.309334
6.7601929 1.5054612 2.5098569 20.224001
6.7808361 1.6235034 2.5263042 20.224001
6.2518854 5.6716146 2.5924187 19.200001
6.818656 2.2893686 2.6038892 20.224001
6.795939 2.3600903 2.6043878 20.224001
6.8163166 2.3449821 2.6094272 20.138666
6.8222923 2.4484408 2.6234932 20.138666
6.7964754 2.58635 2.6317999 19.968
6.8355365 2.5392811 2.6388607 19.903999
6.8452487 2.6548214 2.6564989 19.968
6.8506627 2.754416 2.671174 19.455999
6.8235931 2.8478966 2.674829 19.328001
6.7840505 2.9587061 2.677321 19.200001
6.8234425 2.9373186 2.6870677 19.029333
6.8177114 3.0250695 2.6975894 18.944
6.2709713 5.6346998 2.6033549 18.944
6.8247161 3.0606775 2.7049823 19.136002
6.8209987 3.15712 2.7178576 18.944
6.7540154 3.2177162 2.705564 18.944
6.8034277 3.2147872 2.7208483 18.944
6.7794762 3.3630154 2.736022 18.602667
6.7722578 3.4536624 2.7480946 18.944
6.8012657 3.4277534 2.7530785 18.944
6.764605 3.5519123 2.7616343 18.559999
6.8073845 3.5399799 2.7730148 18.431999
6.7610779 3.6534479 2.7773342 18.517334
6.7499003 3.730931 2.7869701 18.602667
6.6840782 3.8909609 2.7946122 18.431999
6.5315785 4.3347883 2.7574615 18.944
6.5439091 5.5861068 2.7275717 19.200001
6.5363803 5.6156611 2.7245021 19.455999
6.7664032 3.7963398 2.8032513 18.688
6.7546415 3.8605545 2.8108103 18.368
6.7171059 4.0543647 2.8294697 18.176001
6.72052 4.1443086 2.826566 18.261335
6.7134666 4.2511425 2.8300195 18.176001
6.6896768 4.6887803 2.8147187 17.92
6.7326984 4.6712313 2.8337121 17.664
6.6831555 4.7637758 2.8099716 17.92
6.7368989 4.7538548 2.8332355 17.92
-0.50386286 -0.62584364 0.099292159 23.296
-0.51051462 -0.58135974 0.09078417 23.296
-0.50432068 -0.43559855 0.065671071 23.167999
-0.49727461 -0.42707089 0.065131217 23.210665
-0.506778 -0.39719719 0.057896223 23.552
-0.49642009 -0.35533637 0.05326575 23.552
-0.49113539 -0.26523471 0.04645085 23.580446
-0.48640385 -0.16051351 0.046719939 23.850668
-0.48447159 -0.081921503 0.041218471 23.872
0 0 0.069999725 22.102039
0.010276438 -0.70103365 0.18200991 23.040001
-0.51081938 -0.65334976 0.10310347 23.167999
-0.2533063 -0.60990524 0.12637778 23.040001
-0.1338418 -0.68236959 0.15404338 23.424
-0.049466044 -0.67906779 0.16828069 23.040001
-0.26092046 -0.56290048 0.11905178 23.040001
-0.30654681 -0.47649521 0.10219902 23.296
