# .PCD v0.7 - Point Cloud Data file format
VERSION 0.7
FIELDS x y z intensity
SIZE 4 4 4 4
TYPE F F F F
COUNT 1 1 1 1
WIDTH 1202
HEIGHT 1
VIEWPOINT 0 0 0 1 0 0 0
POINTS 1202
DATA ascii
2.8874326 -3.074266 2.3584318 20.672001
2.9410179 -2.9493229 2.3610861 20.608
2.9782732 -2.8470538 2.3634827 20.699429
2.9934754 -2.7452233 2.3551767 20.736
3.0355132 -2.7216594 2.3740652 20.736
3.0345178 -2.6518242 2.3667693 20.809143
3.0532243 -2.5500958 2.3644528 20.882284
3.0692422 -2.4411511 2.3623922 21.056002
3.0965416 -2.3752706 2.3726928 20.992001
3.0712788 -2.2789426 2.3490283 20.992001
3.1101236 -2.2752202 2.3763885 20.992001
3.0911379 -2.1332886 2.3572443 21.247999
3.1077986 -2.1320086 2.3691063 21.119999
3.0961599 -2.0824406 2.3600042 20.992001
3.111141 -2.0211608 2.3665817 21.077333
3.1150582 -1.9815553 2.3723795 21.162666
3.0897744 -1.869832 2.3518558 21.375999
3.11763 -1.85631 2.3722882 21.184
3.0826113 -1.7661073 2.3530025 21.504
3.1161337 -1.758973 2.3772397 21.247999
3.0931897 -1.6687858 2.3629844 21.375999
3.112015 -1.6789032 2.3769312 21.247999
3.0906763 -1.5606818 2.3669515 21.375999
3.1123881 -1.5629809 2.379787 21.247999
3.0899868 -1.4384913 2.3671112 21.439999
3.102839 -1.4445875 2.3767302 21.375999
3.0932276 -1.3529059 2.3769493 21.375999
3.1014414 -1.3545971 2.383199 21.247999
3.0885425 -1.2659953 2.3806846 21.375999
3.1032801 -1.2676958 2.3895736 21.247999
3.0837278 -1.1470547 2.3846788 21.375999
3.0757275 -1.060342 2.382045 21.333334
3.0734508 -0.95277858 2.3859742 21.290665
3.0660675 -0.84945029 2.3884802 21.375999
3.0585318 -0.7431255 2.3878157 21.247999
3.0577655 -0.65295327 2.390131 21.350399
3.0673738 -0.57193023 2.3979282 21.504
3.0661812 -0.45253634 2.3942981 21.350399
3.0596626 -0.33830965 2.3888049 21.440001
3.065979 -0.26979464 2.3940041 21.375999
3.0718546 -0.15210636 2.3941283 21.632
3.0730631 -0.06870196 2.3929224 21.440001
1.8918296 -4.5634193 2.4001558 21.247999
1.9532719 -4.5626063 2.4213409 21.0944
2.0464776 -4.561336 2.4595401 21.205332
2.1149907 -4.5574522 2.4848351 20.992001
2.6557112 -3.7609007 2.4482236 20.48
2.6696866 -3.6677299 2.4221435 20.608
3.1251366 -1.3529301 2.4013577 21.504
3.0880899 -0.90698886 2.4027441 21.247999
3.0854919 -0.84946448 2.4045541 21.333334
3.0878732 -0.79031074 2.4063973 21.76
3.0785344 -0.63882864 2.405293 21.350399
3.0852146 -0.52696133 2.4088545 21.568001
3.0787027 -0.47707453 2.4043124 21.333334
3.0863945 -0.24090847 2.4094415 21.504
3.1007564 -0.22804481 2.4194496 21.504
3.085357 -0.15112336 2.4043775 21.333334
3.1084027 -0.15901117 2.4221625 21.504
3.0897691 -0.046860918 2.4051309 21.375999
3.1036763 -0.039634325 2.4155307 21.632
3.0836005 5.3915386e-07 2.4001572 21.504
2.1695797 -4.5602236 2.5091424 20.864
2.2520528 -4.5633245 2.5413761 20.889601
2.3340235 -4.563199 2.5735309 20.864
2.6485627 -3.9617977 2.5116322 20.224001
2.5590837 -4.6105103 2.6845887 21.247999
2.3873646 -4.5770426 2.6025221 20.992001
2.4232037 -4.5742955 2.6128039 21.077333
2.5910378 -4.5688739 2.6818578 21.119999
2.6137457 -4.5410986 2.6829886 20.608
2.6253126 -4.4133234 2.648144 20.224001
2.6305628 -4.3901958 2.6444435 20.48
-0.17113253 -0.75728709 0.01660778 23.936001
-0.25185633 -0.61216861 0.062128156 23.296
-0.32833982 -0.47788733 0.095666096 23.167999
-0.24735038 -0.44241971 0.081473351 23.040001
0 0 0.069999725 22.482733
-0.50886214 -0.50886774 0.12170967 23.296
-0.50718403 -0.34035048 0.12190376 23.424
-0.50342643 -0.28462696 0.12026101 23.552
-0.4964017 -0.26377922 0.11930054 23.643431
-0.48673683 -0.15368012 0.12520735 23.8592
-0.48402676 -0.083779797 0.14019381 23.808001
-0.3163726 0.035674784 0.15017474 23.125334
-0.30139723 0.13944118 0.1867042 22.784
-0.30479854 0.17498815 0.2045527 22.9888
-0.29935229 0.18535107 0.20476717 22.784
-0.30800441 0.2691482 0.226578 22.966858
-0.29979506 0.20187479 0.2083419 22.784
-0.3070474 0.34521195 0.23911196 22.912001
-0.30197367 0.46102235 0.26320016 22.784
-0.3056649 0.51542574 0.28007209 22.784
-0.40148863 0.76021206 0.37434942 22.784
-0.38853684 0.87617171 0.42761886 22.528
3.0777657 0.039227627 2.395937 21.247999
-0.030768273 3.8626158 2.3960118 21.247999
-0.093439177 3.9094176 2.388154 20.736
3.1035461 0 2.4152293 21.504
3.0912087 0.14293143 2.4084771 21.350399
3.1099734 0.15767355 2.4231875 21.452801
3.0935202 0.22218162 2.413722 21.375999
3.1073661 0.25617382 2.4261568 21.312
3.0925915 0.35275778 2.4222054 21.284573
3.109081 0.33311179 2.432914 21.504
3.09846 0.40708309 2.4315073 21.247999
3.1086016 0.45385551 2.4440336 21.30489
3.0884342 0.52825522 2.4377372 21.247999
3.1067588 0.54495227 2.4535728 21.299198
3.0782063 0.65399867 2.4480867 21.3248
3.0559666 0.74967444 2.4478455 21.273602
3.0320566 0.84712619 2.4490514 21.3248
2.9951038 0.92487234 2.4387419 21.674667
3.012558 0.95216358 2.4576037 21.650284
3.0231068 1.0432521 2.4867146 21.467428
3.040477 1.0841086 2.5092797 21.504
3.0330312 1.146525 2.5203326 21.418665
3.0534949 1.2506437 2.5697675 21.394285
3.0468578 1.3049146 2.5987186 21.247999
3.065223 1.3337314 2.6284995 21.196798
3.0689259 1.4257693 2.6888664 21.0944
3.083652 1.5416451 2.7763965 21.065144
3.0806122 1.5894864 2.8105998 20.992001
3.0948505 1.6471497 2.8593171 20.906668
3.0813127 1.7457933 2.9269023 21.028574
3.1114655 1.700744 2.9067118 20.992001
2.8814423 1.8873699 2.9267025 20.224001
2.9423776 1.8738973 2.9495997 20.543999
3.0260558 1.8338505 2.9609864 20.699429
2.8645353 1.9233211 2.9449654 20.309334
1.50378 3.1704862 2.9711154 20.224001
1.4577967 3.2357666 2.9794714 20.224001
1.3647076 3.3585436 2.9878457 20.333714
1.2826716 3.4573836 2.9911938 20.48
1.3078141 3.4080541 2.9810739 20.48
1.1641667 3.5868926 2.9884501 20.352001
1.2191565 3.5345857 2.9946833 20.352001
1.0728893 3.6815739 2.9793539 20.224001
1.1359456 3.6375813 2.9958844 20.224001
1.0587002 3.7136953 2.9897525 20.309334
0.87945718 3.8873196 2.9711416 20.394667
0.95037115 3.8351262 2.987267 20.416
0.77257365 3.9918978 2.9696405 20.224001
0.8569212 3.9228392 2.9780951 20.608
0.69900739 4.0999346 2.9834189 20.224001
0.72146201 4.0746036 2.9844563 20.394667
0.5774951 4.1887417 2.962379 20.608
0.64418495 4.1366444 2.9752607 20.48
0.48064294 4.2920341 2.9606886 20.394667
0.538674 4.2402902 2.9666555 20.565332
0.43737566 4.343184 2.9646811 20.352001
0.28522545 4.4696755 2.9456906 20.224001
0.17487751 4.5703239 2.9426482 20.352001
0.21081159 4.5604224 2.9569106 20.352001
0.13997695 4.6294527 2.9592099 20.608
1.4774555 3.2613924 3.007103 20.096001
1.5123702 3.2150135 3.0074351 20.48
1.3877273 3.3578327 3.0087245 20.48
1.3305775 3.4347985 3.012152 20.309334
1.1882626 3.5831423 3.0054128 20.48
1.2468901 3.5237739 3.0065718 20.16
1.1369514 3.6617637 3.0120313 20.3776
0.98719442 3.8135767 3.0042505 20.48
-0.00032738244 0.091495514 0.0071552396 22.271999
1.0798493e-05 6.0122475e-05 0.069954298 22.209816
0 0 0.069999725 21.93779
1.3037041 0.33596906 0.0022913367 22.528
1.6716216 0.64460427 0.0039931908 22.656
1.6788328 0.75438678 0.010822496 22.1696
1.7194324 0.71680999 0.004947342 22.528
1.6839195 0.83440161 0.016790574 21.964802
1.7024925 0.82344466 0.01412541 22.016001
1.6843245 0.91946203 0.024356684 21.888
1.7076578 0.95821303 0.027193442 21.589333
1.6986021 1.0573293 0.041601196 21.247999
1.7102484 1.0370054 0.037632607 21.2992
2.4574213 1.820791 0.084076546 17.024
-0.30696851 0.15121406 0.19816105 22.784
-0.2932322 0.17928505 0.19273338 22.912001
1.325211 1.8353281 0.19662572 22.912001
1.8341961 1.8392948 0.15671861 22.784
1.9393543 1.8640856 0.15153457 20.138666
2.0734005 1.8811936 0.13981852 18.431999
2.2082753 1.8346717 0.11738685 17.408001
2.3493369 1.8529716 0.10329314 18.944
1.8558459 1.9088491 0.16501495 21.247999
-0.30976665 0.012859683 0.21515232 22.912001
-0.31263682 0.17879677 0.20030323 23.040001
-0.30397886 0.34490645 0.21780622 22.912001
-0.29825899 0.47452733 0.23048165 22.528
-0.39547351 0.75334436 0.29466179 23.040001
0.93462771 1.7551085 0.22192535 22.783998
0.81478369 1.8683224 0.25896546 22.528
1.309677 1.8568841 0.20001343 22.784
0.69619817 1.9015708 0.29069403 9.4720001
0.78589988 1.9613514 0.28143036 22.784
1.9039358 2.1822722 0.20006341 17.408001
-0.49656627 -0.24393141 0.38905486 23.381332
-0.48243377 -0.14295238 0.34040573 23.594666
-0.48309946 -0.089514114 0.32379344 23.808001
-0.39495379 0.88073128 0.3094821 22.784
-0.38111955 1.0861379 0.33644217 22.528
-0.37218934 1.1473384 0.34433323 22.528
-0.50440687 -0.40501669 0.49133024 23.040001
-0.49200341 -0.41469055 0.49474159 23.040001
-0.50429571 -0.36836535 0.46706486 23.244801
-0.49818391 -0.3666867 0.46416944 23.296
-0.50436705 -0.26247928 0.40118349 23.296
-0.35026473 1.601383 0.41908887 22.528
-0.51036268 -0.52577257 0.57163453 23.040001
-0.49304935 -0.52935231 0.56932896 23.040001
-0.50734562 -0.49052587 0.54915941 23.040001
-0.49193895 -0.45456022 0.52082509 23.167999
1.4474751 -0.034942709 0.58386648 19.52
-0.51282263 -0.65340424 0.65162563 22.784
-0.53766537 -0.80909342 0.75383312 22.784
-0.52788883 -0.79987556 0.7446233 22.528
0.0874025 3.8665123 0.79383951 21.247999
0.11807226 3.8654814 0.78867841 21.248001
-0.53967446 -0.96394986 0.84765869 22.528
-0.025230983 3.8895352 0.81653601 21.162666
0.033340596 3.8806622 0.80404359 21.205334
-0.12271473 3.915581 0.83227038 21.248001
-0.061920147 3.9218662 0.82697982 21.1968
1.7611786 6.0619235 0.8824079 17.237333
1.7310027 6.1022263 0.89950234 17.152
2.0680637 6.1906528 0.82951117 17.535999
2.1314073 6.1837978 0.81841063 16.768
2.1140728 6.2295485 0.82783407 17.152
-0.55490512 -1.1121887 0.944938 22.528
1.6467962 6.0733695 0.91092485 16.469334
1.7071818 6.0917978 0.90228117 17.408001
1.6694634 6.1060491 0.91264713 17.152
1.1601764 6.3885679 1.0920182 17.664
1.2559934 6.3954029 1.0677116 17.152
1.3427204 6.3891072 1.0463592 17.493334
1.4757226 6.3821068 1.0162479 17.408001
1.5073369 6.3804135 1.0093516 17.408001
1.2908272 6.4113231 1.0634418 17.408001
1.3352123 6.4209476 1.055933 17.92
-0.58222669 -1.4906031 1.1964828 22.271999
0.70535815 6.3953309 1.1790775 20.736
0.8291471 6.3976316 1.1565481 20.736
0.98315299 6.3892498 1.1282126 20.352001
1.0223405 6.3746433 1.1141391 19.071999
0.68633842 6.4094253 1.1862311 20.736
0.75952691 6.4185829 1.1739128 20.672001
0.85884279 6.427309 1.1570753 20.416
0.93523496 6.4161592 1.1399274 20.565332
1.070389 6.413517 1.1139197 19.072001
1.1271681 6.438643 1.1091375 17.834665
5.887423 -1.0089686 2.2466846 17.92
5.8581161 -0.97528398 2.2289479 17.664
2.7976584 -2.339123 2.3897614 20.992001
2.8103983 -2.3346665 2.3863053 21.247999
2.9321783 -2.3049936 2.3896511 21.119999
2.9846451 -2.2856505 2.3851278 20.992001
3.0564969 -2.2721412 2.3866704 21.120001
3.1195693 -2.2582095 2.3910446 20.992001
6.487884 -0.82776695 2.3966982 20.224001
6.5199642 -0.71649313 2.3977001 20.224001
6.5176177 -0.66394162 2.394913 20.394667
6.5193143 -0.54253572 2.3915689 20.394667
6.544795 -0.40540579 2.3970311 20.48
-0.64561164 -3.3290341 2.4571483 21.447111
-0.5809297 -3.3343 2.4524794 20.991999
2.7666421 -2.4273226 2.4591718 21.183998
2.7777667 -2.3754077 2.4167509 21.440001
2.8446703 -2.340008 2.4032969 21.119999
2.9283938 -2.320879 2.4008703 21.247999
6.5291739 -0.85930842 2.4184198 20.288
6.5244546 -0.76937819 2.4070883 20.053335
6.5473628 -0.62503743 2.4040544 20.224001
6.5567617 -0.56301773 2.4053919 20.352001
6.5601358 -0.45859829 2.4037199 20.416
6.5545149 -0.38513863 2.4000411 20.224001
2.7596595 -2.5539138 2.5592124 21.065144
6.4599566 -1.4156488 2.5896895 20.224001
6.459918 -1.3620908 2.5608177 20.224001
2.7415185 -2.7317507 2.6977932 20.992001
2.7532017 -2.6409469 2.6288948 21.043201
6.4399548 -1.6160951 2.6876299 19.968
6.4493246 -1.5533652 2.65365 20.121601
6.4570556 -1.4688002 2.6124589 20.309334
2.7399566 -2.8272207 2.7753584 20.799999
6.443831 -1.7590814 2.7747371 20.352001
6.4299283 -1.6679116 2.7183652 20.352001
-0.098029636 -3.6886332 2.8317492 21.504
0.8883357 -3.3109384 2.8601518 20.224001
2.7312915 -2.9746895 2.8942616 20.736
2.7339644 -2.8752279 2.8131003 20.736
6.3838701 -1.9180601 2.8648319 20.48
6.4108081 -1.9594564 2.898824 19.968
6.4337325 -1.855382 2.8365026 20.3776
-0.53971499 -4.0707607 2.9747984 20.778667
-0.44882086 -4.0389047 2.9775169 20.626286
-0.36209822 -4.0113149 2.9860694 20.437332
-0.30790114 -3.973702 2.9750762 20.352001
-0.24383691 -3.94591 2.9799542 20.553143
-0.026706314 -3.8114688 2.9533489 20.736
0.043724097 -3.8017812 2.9752736 20.48
-0.016444979 -3.7699013 2.9233413 20.992001
0.051504582 -3.7862632 2.9651043 20.522665
0.12111811 -3.769918 2.9821227 20.416
0.36440551 -3.6783409 2.9923146 20.224001
0.47217703 -3.6284199 2.9910467 20.138666
0.53586453 -3.6095216 2.9953983 20.224001
0.5988214 -3.5880854 2.9984736 19.968
0.66790295 -3.549808 2.9870844 20.352001
0.71845603 -3.5394311 2.9957736 20.48
0.82808334 -3.5052001 2.9968975 20.48
0.8606258 -3.4702737 2.9800904 20.224001
1.1906641 -3.3845656 2.9948382 20.48
1.967263 -3.2487881 2.9953275 20.608
2.0786648 -3.2102575 2.9854481 20.736
2.1120489 -3.2057762 2.9895167 20.224001
2.2344036 -3.1893396 2.9869266 20.352001
2.3639679 -3.1744778 2.993535 20.351999
2.4380465 -3.160162 2.990977 20.394667
2.5405555 -3.1433599 2.993474 20.48
2.6761806 -3.1135712 2.9931896 20.736
2.7214444 -3.0504045 2.950079 20.992001
2.7362013 -2.9990792 2.9091623 20.736
4.1536455 -2.7152586 2.9363074 19.968
4.2312412 -2.7183905 2.9530807 19.712
4.213171 -2.6879368 2.9298506 19.712
4.3543534 -2.6722522 2.9534132 19.775999
4.4521928 -2.6359098 2.943615 19.626665
4.5822725 -2.5869453 2.9381948 19.712
4.7199335 -2.5570731 2.9480925 19.584
4.8697758 -2.5195594 2.9503555 19.584
4.9171844 -2.5145252 2.9551029 19.455999
4.8998094 -2.4860628 2.929544 19.712
4.9365792 -2.4850581 2.9410019 19.455999
5.0082664 -2.4419858 2.9211493 19.455999
5.1492667 -2.4203734 2.9375334 19.327999
5.4565153 -2.3359113 2.942399 19.200001
5.4367561 -2.2969456 2.9150708 18.944
5.5402036 -2.288974 2.9312966 19.199999
5.7502089 -2.1962295 2.9101605 18.944
6.0614533 -2.1331587 2.9358599 18.944
6.1376886 -2.1128016 2.9391916 18.688
6.1242628 -2.0864699 2.9179475 19.200001
6.2745538 -2.0381875 2.9198093 19.072001
6.4132719 -1.9824772 2.9208903 19.712
0.36613655 -3.6959181 3.0086226 20.352001
0.42642072 -3.6709588 3.0064583 20.309334
0.55049276 -3.6289876 3.0141621 20.223999
0.6513254 -3.5821054 3.0076582 20.224001
0.75380361 -3.5484695 3.010812 20.297144
0.82695377 -3.5256417 3.0129163 20.019199
1.0611926 -3.4474437 3.0105555 20.351999
1.1329712 -3.4276288 3.0129089 20.275198
1.2722423 -3.4077337 3.0352764 20.48
1.275763 -3.3844051 3.0185323 20.351999
1.3567598 -3.3553634 3.0205333 20.394667
1.4542981 -3.3345504 3.0356712 20.32
1.5237535 -3.3154459 3.0445435 20.224001
1.5258608 -3.2743034 3.0148466 20.224001
1.6536382 -3.2711372 3.0581493 20.3776
1.7494478 -3.241437 3.0727925 20.48
1.8482219 -3.2110097 3.0902476 20.48
1.9726185 -3.2576077 3.0032604 20.48
2.0701392 -3.2306669 3.0019882 20.992001
2.1581349 -3.223419 3.008404 20.394667
2.2338991 -3.224781 3.0171306 20.394667
2.4191186 -3.1771538 3.0018382 19.968
2.5762768 -3.1696098 3.0208828 20.352001
2.6404996 -3.1411998 3.0097928 20.736
2.7165604 -3.113694 3.0025239 21.247999
1.8571012 -3.2264462 3.10478 20.48
0 0 0.069999725 22.258955
-0.44637877 0.17259763 0.0012418032 23.296
-0.30617836 0.3515965 0.034172557 22.893717
-0.29744479 0.36897248 0.038507998 23.040001
-0.30846676 0.405092 0.040866937 22.784
-0.40189463 0.71870375 0.060208201 22.912001
-0.39453128 0.84101379 0.078901917 22.912001
-0.12752271 2.298614 0.26029375 23.040001
-0.094084442 2.2839732 0.26248336 23.040001
-0.23513389 2.3492658 0.2517947 22.954666
-0.15532301 2.3172195 0.25778028 22.926222
0.97651267 1.790887 0.36947447 22.720001
1.0176105 1.734942 0.3858017 22.656
0.94930333 1.8319499 0.36111352 22.784
0.78559607 1.9757619 0.31824577 22.784002
0.81018829 1.9736911 0.32323921 22.911999
0.91737717 1.9082651 0.35185 22.784
0.74861032 2.0511742 0.31305489 7.9359999
0.76653725 2.1423283 0.31974196 4.8639998
0.18855269 2.8309627 0.32864764 20.992001
0.23196997 2.8643055 0.33197644 17.834665
1.302139 1.7615542 0.49275437 21.247999
1.3932806 1.8662399 0.52502346 17.152
1.516674 0.021719225 0.6083141 22.425602
1.6129365 0.1408277 0.64456737 22.016001
1.7082367 0.22305934 0.68135566 8.7040005
1.2288011 5.6175547 0.63427567 12.032
0.73138291 6.3871846 0.66602123 20.608
0.84200191 6.3699765 0.66900992 20.565332
0.94045597 6.3746338 0.67986143 20.351999
1.0907065 6.375761 0.68970501 18.176001
1.1660352 6.3608999 0.69457078 19.84
0.75257701 6.4225659 0.6695137 20.821333
0.84778237 6.4132009 0.67224467 20.48
0.97093016 6.4056454 0.68568802 20.48
1.0454736 6.4163256 0.69282836 18.496
1.1176484 6.4110284 0.6985122 18.431999
1.2116696 6.4091201 0.69995415 19.712
1.7709906 0.22270253 0.70342875 11.52
1.6608777 6.0201802 0.70217532 17.408001
1.7030687 6.060842 0.70971453 17.279999
1.8824303 6.1010547 0.73117304 17.408001
1.9278055 6.1275129 0.74015641 16.768
2.047152 6.1478624 0.76110291 17.024
1.1431675 6.4368572 0.70139617 18.944
4.2753296 5.4872489 1.4817836 19.84
4.3859415 5.4844904 1.5289404 19.84
4.4473495 5.4719238 1.5574968 19.712
4.5138521 5.4824486 1.5880196 19.84
4.3440814 5.5032482 1.5097568 19.712
5.3438978 6.067657 1.895873 19.455999
5.394855 6.086545 1.9198089 19.200001
5.4528403 6.080462 1.9517403 19.370667
5.5515785 6.0863099 1.9868701 19.327999
5.5904346 6.0708003 2.0069971 19.200001
5.621314 6.0464096 2.0244393 19.072001
5.5135603 1.5870788 2.1060686 18.688
5.5348859 1.6217543 2.1167707 18.559999
5.6346135 4.1238837 2.1798961 17.92
5.7984309 6.0614166 2.1068182 19.200001
5.8591132 6.047688 2.1351728 19.327999
5.9237509 6.0374141 2.1616445 19.200001
6.1137657 5.6839199 2.2707789 19.072001
6.0989466 5.7243848 2.2580571 18.431999
6.0918369 5.9582658 2.2432535 18.176001
6.1308875 5.9397378 2.2610493 17.664
6.0795569 6.0220685 2.231473 18.944
6.1471543 6.0505786 2.255724 18.688
6.3530769 5.667028 2.3716104 19.029333
6.731246 0.98759538 2.4843199 19.968
6.7211127 1.0514743 2.4841859 20.224001
6.6947446 1.1999058 2.4836509 20.224001
6.7202425 1.1496756 2.4895036 20.288
6.7237873 1.2711589 2.4983664 20.224001
6.4589472 5.6703415 2.420754 19.200001
6.5269718 5.657259 2.4466734 19.071999
6.7384491 1.2591863 2.5027142 20.48
6.7561283 1.3550408 2.5153391 20.351999
6.7404928 1.4409661 2.5160918 20.352001
6.7589331 1.5459607 2.5305393 20.121601
6.7346716 1.6078314 2.5271282 20.224001
6.7283573 2.2168422 2.5839829 19.968
6.8204594 5.3488536 2.5950496 19.200001
6.8433952 5.5620184 2.5877237 19.200001
6.7676153 5.626092 2.5571191 19.200001
6.8220987 5.6350102 2.5778952 19.200001
6.784318 2.27107 2.6088986 19.84
6.7769637 2.3524673 2.6157548 20.138666
6.8131695 2.3167706 2.6237812 20.224001
6.7671013 2.4293706 2.6215515 19.882668
6.8202124 2.4647031 2.6435132 19.712
6.7740231 2.5454812 2.6380785 19.904001
6.8175559 2.5618391 2.6545498 19.712
6.783412 2.6971807 2.6605694 19.968
6.8099818 2.6579535 2.6642485 20.053335
6.7874188 2.7487056 2.6687076 20.053335
6.7892981 2.8690639 2.6856527 20.096001
6.8078308 2.8199153 2.6849837 19.712
6.7736411 2.9492939 2.6917841 19.797333
6.8779759 4.0929489 2.6977327 19.455999
6.8907151 4.27988 2.698766 19.455999
6.8864937 4.3380084 2.6972566 19.584
6.8789177 4.455874 2.6913927 19.712
6.8960142 4.7512989 2.6777937 19.200001
6.8329163 5.2890711 2.6015985 19.455999
6.8487072 5.3360639 2.6064665 18.688
6.8581033 5.4489455 2.6071467 18.944
6.8659735 5.5264339 2.6009762 19.200001
6.8047204 2.945689 2.7013712 19.968
6.804956 3.0487461 2.716198 19.882668
6.8248396 3.1489704 2.724365 20.032001
6.8188672 3.2382963 2.7228136 19.797333
6.8098097 3.3805931 2.718874 19.84
6.8235583 3.4551096 2.7183387 19.968
6.8563929 3.5401697 2.7253118 19.584
6.8636689 3.6408203 2.7203116 19.5072
6.8471961 3.7581184 2.7142968 19.648001
6.8523231 3.8460686 2.7067578 19.584
6.873837 3.9517598 2.7136648 19.52
6.8806453 4.0504065 2.7117476 19.584
6.8877282 4.1581054 2.7069218 19.626665
6.8892775 4.2337923 2.7042308 19.455999
6.9038181 4.348856 2.7073054 19.200001
6.9118853 4.4307528 2.7063279 19.455999
-0.48731032 -0.22807384 0.096675083 23.756802
-0.4859077 -0.12173486 0.073509522 23.893333
-0.484303 -0.070717812 0.06230187 23.808001
-0.32436052 0.043079644 0.053824335 23.679998
0 0 0.069999725 22.077866
-0.29300952 0.10993047 0.044373333 22.784
-0.50940049 -0.63923675 0.18256931 23.0912
-0.50346667 -0.45176095 0.13952273 23.552
-0.49685383 -0.47195199 0.14426027 23.296
-0.50292319 -0.33376986 0.1162192 23.552
-0.49500585 -0.336209 0.11709997 23.456001
-0.4925704 -0.28395137 0.10666616 23.6544
-0.53936708 -0.93307251 0.25194764 22.656
-0.13740131 -0.7341786 0.23987815 23.040001
-0.082565404 -0.55770457 0.20186922 23.040001
-0.58957154 -1.5181196 0.38882893 22.656
0.16027129 -1.2379044 0.43675187 21.76
0.49239543 -1.676721 0.63632381 22.528
0.54744452 -1.636258 0.63844389 22.186666
0.19022495 -4.9480448 1.4202425 20.608
0.24630472 -4.9684153 1.4408588 20.633602
0.36571249 -4.875927 1.4489686 20.172802
0.43098766 -4.8226099 1.4493372 19.968
0.47288775 -4.7781515 1.4468119 20.096001
0.74311846 -4.5460124 1.4599717 19.712
0.77798527 -4.4906859 1.4548016 19.968
0.84202725 -4.4413481 1.4570659 21.430857
2.2155061 -4.7728157 1.887485 6.6560001
2.2444267 -5.1301479 1.9849037 4.6079998
2.6383944 -4.6403966 1.9720341 18.474669
2.68223 -4.59796 1.9728436 20.736
2.7065232 -4.589345 1.9814997 20.736
2.4390326 -5.147172 2.0373368 2.0480001
2.5909872 -4.97016 2.0397151 15.872
2.8342652 -4.5872397 2.0244212 20.799999
3.0142088 -4.5810013 2.0945396 19.84
3.0524845 -4.5757132 2.1055179 20.224001
3.3428798 -4.6357613 2.2335508 20.0704
3.4364278 -4.6248679 2.2691131 20.16
3.7743406 -3.3705442 2.235935 19.541334
3.9104826 -0.83011937 2.2450008 19.712
3.5390646 -4.6390471 2.3111062 20.288
3.6064308 -4.6353383 2.3386803 20.224001
3.7307177 -4.6565075 2.3959179 20.224001
3.7788098 -4.6557159 2.4145243 20.224001
3.8640287 -4.6541977 2.4512742 20.309334
3.9504178 -4.6623144 2.48822 19.968
3.9796381 -4.6867485 2.5048797 20.224001
4.1352139 -4.6938257 2.5723343 19.968
4.2659993 -4.6828723 2.6208999 20.096001
4.3997998 -4.6934996 2.6864569 19.968
4.431066 -4.6969323 2.7019596 19.455999
4.5405679 -4.6923804 2.7548482 19.712
4.688797 -4.7092719 2.8174171 19.968
4.7666488 -4.7121563 2.8561373 19.882668
4.7955561 -4.6810455 2.8676953 19.200001
4.9242058 -4.137826 2.8688736 19.071999
4.9960041 -3.8270612 2.8806672 18.816
4.9838271 -3.7615933 2.8672731 19.327999
5.0239854 -3.7421741 2.8851106 18.944
4.9821815 -3.6137383 2.8585138 19.200001
5.015872 -3.6544421 2.8778887 19.285334
5.0381966 -3.5101306 2.8804383 18.688
4.9588118 -3.4782174 2.8366711 19.200001
5.0310793 -3.4815373 2.8759768 18.944
5.0184927 -3.379555 2.8560824 19.455999
5.048636 -3.2507787 2.8664246 19.1488
5.0568566 -3.1572375 2.8652561 19.353601
5.0756269 -3.0779514 2.8717995 19.200001
5.1104655 -3.0439482 2.8925123 19.455999
5.0707593 -2.966202 2.8658264 19.264
5.1032772 -2.9203894 2.8793712 19.327999
5.0819135 -2.844435 2.8677278 19.264
5.1084738 -2.8379962 2.8814955 19.455999
5.0920453 -2.7138166 2.8733013 19.200001
5.1141715 -2.7517183 2.8791153 19.327999
5.0942345 -2.6839647 2.8729124 19.455999
5.1147499 -2.6637743 2.8799419 18.944
5.0855508 -2.5268393 2.861306 19.200001
5.133677 -2.5102987 2.884366 19.455999
5.134727 -2.4546008 2.8826838 19.353598
5.1345263 -2.3592343 2.8831332 19.4048
5.1288285 -2.2414961 2.8801801 19.455999
5.1510291 -2.1450272 2.891809 19.404799
5.1405983 -2.0520179 2.8862426 19.712
5.1330223 -1.9303859 2.885047 19.626665
5.1504526 -1.8535876 2.8975253 19.455999
5.1519732 -1.762431 2.8950396 19.626665
5.1376314 -1.6670699 2.8916676 19.455999
5.1323109 -1.4521211 2.8955507 19.584
5.1294403 -1.3465469 2.8976226 19.584
5.0157962 -0.84236288 2.893065 19.712
5.0016227 -0.7911641 2.8959911 19.968
4.73774 -0.16523565 2.8900654 19.968
5.172421 -2.0773556 2.90605 19.200001
5.1680398 -1.9062992 2.9046805 19.455999
5.163486 -1.8429542 2.9038131 19.541334
5.1611366 -1.7245559 2.9020753 19.455999
5.1769791 -1.631617 2.9162052 19.455999
5.1718364 -1.5701069 2.9129069 19.285334
5.1506286 -1.4280056 2.9058292 19.370668
5.1436796 -1.3677269 2.9052289 19.584
5.0495529 -0.8398881 2.9147575 19.712
4.9996228 -0.72600716 2.9047022 19.712
5.0311241 -0.76317149 2.9184196 19.882668
4.9791656 -0.63733155 2.9136779 19.797333
5.0055656 -0.62993187 2.9313803 19.712
4.9738855 -0.5492779 2.9295509 19.8144
5.0116768 -0.58235335 2.9469471 19.968
4.8921547 -0.41966891 2.9123993 19.712
4.9117985 -0.49199912 2.9099298 19.968
4.8759022 -0.37166148 2.9145753 19.84
4.7563782 -0.12823297 2.9177904 19.84
4.6973233 -0.044663295 2.9036121 19.968
4.7117047 -0.022403549 2.9245329 19.968
4.7050571 8.2265831e-07 2.9278774 20.224001
-0.35408098 -1.1425389 0.0034011304 23.296
-0.16051535 -0.75850445 0.011600513 23.808001
-0.26468065 -0.62003565 0.046263348 23.040001
-0.50399202 -0.52480286 0.093545467 23.296
-0.49562562 -0.49366465 0.095503122 23.296
-0.32100841 -0.47941944 0.069398552 23.200001
-0.27734011 -0.46604186 0.06425152 23.296
0 0 0.069999725 22.51899
-0.50163668 -0.3233926 0.11594675 23.552
-0.48783201 -0.32817963 0.11307251 23.392002
-0.49271086 -0.24964182 0.12197869 23.734858
-0.47936785 -0.16471155 0.12858006 23.808001
-0.48620501 -0.067492932 0.15190871 23.722666
-0.3117792 -0.019307792 0.12953936 22.784
-0.31074268 0.035559665 0.14604467 23.082666
-0.30800793 0.12113634 0.16733463 22.937601
-0.30114013 0.23418543 0.18483068 22.784
-0.31237212 0.30142036 0.2029866 23.040001
-0.2990641 0.3339861 0.21111685 22.784
-0.30525166 0.41511968 0.24273778 22.784
-0.2969228 0.47800523 0.27383643 22.656
-0.4040018 0.78871924 0.4232994 22.784
-0.40054443 0.95043772 0.51928526 22.784
-0.3858965 0.94073486 0.51762664 22.528
-0.38006857 1.1246487 0.63330215 22.528
-0.35125229 1.5734051 0.92322582 22.271999
2.2952931 1.7920424 2.2986996 20.736
3.3739815 0.5836072 2.3738546 21.375999
3.2861221 0.66821223 2.3676186 21.247999
3.3143723 0.64938104 2.3731182 21.504
3.2218878 0.75410956 2.3741672 21.247999
3.160511 0.85029387 2.3865268 21.269335
3.068115 0.95342231 2.3853714 21.304888
3.1057806 0.91145015 2.3876796 21.375999
3.0272963 1.0203875 2.3947921 21.76
2.3388259 1.7845241 2.3215923 21.290667
2.2719717 1.8631711 2.318891 21.077333
2.3073542 1.8411726 2.3292906 20.821333
2.2436833 1.9056962 2.3230104 22.016001
-0.10958893 3.7342689 2.394484 21.247999
-0.097786605 3.7362072 2.3994651 20.992001
3.0659442 0.99564809 2.4026196 21.247999
3.0521147 1.0694296 2.4359837 21.696001
3.0500727 1.1425048 2.4716341 21.546667
-0.15958148 3.7950299 2.4132133 21.247999
-0.074011028 3.7324998 2.4087667 21.162666
3.0526204 1.2406927 2.5229766 21.452799
3.0610034 1.3497971 2.5774703 21.407999
3.0762632 1.3923057 2.6094317 21.504
3.0697298 1.4385594 2.6236551 21.247999
3.0826533 1.5439653 2.6795354 21.30489
3.0818591 1.6754811 2.740283 21.0944
3.0897543 1.724474 2.765233 20.864
4.5507054 0.15160866 2.888531 20.224001
3.1119311 1.7955776 2.811012 20.736
3.0788944 1.8289686 2.8064818 20.736
3.1115959 1.8561513 2.8386614 20.918858
3.1137283 1.9583073 2.882308 20.991999
4.648809 0.053895373 2.9200611 20.138666
4.7125974 0.014947107 2.94238 19.712
4.5902634 0.14194714 2.9152851 20.096001
4.6056643 0.12056098 2.9171081 20.096001
4.4985795 0.28574842 2.9180431 19.968
4.5287652 0.24442701 2.9171216 20.0704
4.448843 0.34619844 2.9109743 20.096001
4.5228081 0.30889857 2.9391484 19.712
4.3708997 0.46333581 2.91749 20.2752
4.4023528 0.44130534 2.9275916 20.224001
4.3169904 0.50895405 2.9083409 20.096001
3.1151056 2.050009 2.9241729 21.216002
3.1165922 2.1008098 2.9465845 21.247999
2.7486196 2.569339 2.9496233 20.48
2.6899519 2.6793084 2.9757576 20.48
2.714433 2.6528614 2.974947 20.906668
2.6461701 2.7467456 2.9892046 20.607998
2.7005095 2.7069409 2.9964218 20.48
2.4575775 2.8980985 2.9781885 20.224001
2.5501654 2.8343301 2.9882169 20.288
2.3700438 2.9815991 2.9850767 20.394667
2.4615674 2.9253025 2.9961789 20.428799
2.2596374 3.0643799 2.9840927 20.406857
2.3286846 3.016968 2.9869001 20.309334
2.0664079 3.1819847 2.9739342 20.650667
2.1603162 3.1347144 2.9837935 20.36622
2.2097497 3.1000056 2.9836586 20.224001
1.9631211 3.2516272 2.9770746 20.522667
2.0443633 3.214649 2.9857857 20.351999
1.7702216 3.3764279 2.9878118 20.351999
1.8433022 3.3304913 2.9834306 20.383999
1.5511003 3.4832861 2.9883182 20.480001
1.6472489 3.4454589 2.9929488 20.406857
1.7304043 3.4047852 2.9930792 20.352001
1.4805666 3.5288103 2.9988527 20.48
0.94045156 3.8921015 2.9580894 20.48
0.87123811 3.9617977 2.9734507 20.608
0.93195921 3.9207337 2.9736664 20.48
0.67496169 4.0752239 2.9541349 20.224001
0.74815571 4.0392871 2.9691575 20.394665
0.80703557 4.0012493 2.9715097 20.224001
0.49105826 4.1938372 2.9488461 20.352001
0.55811596 4.1567159 2.9578521 20.437334
0.63745314 4.1186805 2.9689028 20.522667
0.33031064 4.2860885 2.9385087 20.352001
0.4422425 4.2424779 2.9590499 20.351999
0.51235771 4.2025075 2.9635792 20.48
0.1986769 4.3927965 2.9436517 20.48
0.2520946 4.3541946 2.9457781 20.394667
0.33153987 4.30199 2.9499798 20.48
0.074586622 4.4788365 2.9436986 20.48
0.14434148 4.4407105 2.9527946 20.333714
0.21332495 4.4069462 2.9630072 20.48
0.089231551 4.5007639 2.9628124 20.224001
2.659472 2.7604566 3.003715 20.352001
2.547709 2.8726146 3.0087798 20.394667
2.6048596 2.8088596 3.0018916 20.736
2.432425 2.9700384 3.0082123 20.3776
2.5073736 2.9004159 3.0043228 20.48
2.1222169 3.186367 3.0000684 20.48
2.2660267 3.1054342 3.012224 19.968
1.979915 3.2794697 3.0018916 20.48
2.0824854 3.2143669 3.0012839 20.48
1.9168979 3.3405242 3.0176938 20.48
1.5931187 3.4977803 3.0116162 20.48
1.6428761 3.470062 3.0085771 20.224001
1.7204959 3.4391298 3.0131354 20.096001
1.3814694 3.5866146 3.011616 20.309334
1.4465019 3.5648663 3.0144811 20.553143
1.5312606 3.5267682 3.0127101 20.3776
1.1698092 3.6916952 3.033901 20.394667
1.2493629 3.6589048 3.0291653 20.479998
1.3387626 3.6301618 3.0313251 20.333714
1.027488 3.7766523 3.0655558 20.288
1.125908 3.7161918 3.041883 20.326401
1.2018447 3.7109089 3.0553758 20.48
1.0346336 3.8029461 3.0863719 20.48
1.5297332 -1.6101041 0.0009720102 21.76
1.5481406 -1.5538718 0.011349011 19.712
1.5647923 -1.4667554 0.02638603 19.136002
1.6211277 -1.3520271 0.052995242 18.688
1.5983307 -1.2576838 0.066813633 19.072001
1.6103501 -1.2219596 0.076198444 19.200001
1.5870235 -1.1380985 0.087230414 19.200001
1.613421 -1.1492922 0.088997051 19.200001
0 0 0.069999717 22.372046
1.5944989 -0.95836765 0.11925063 19.712
1.622057 -0.91970778 0.13129437 19.712
1.6058527 -0.87712485 0.13670889 19.712
1.6710396 -0.71425289 0.16908237 20.608
1.6349421 -0.65394473 0.17340343 20.582401
1.6578678 -0.53287214 0.19605339 21.162668
1.6696109 -0.5164029 0.20029099 21.119999
1.636236 -0.43870652 0.21066035 20.864
1.5841025 -0.32368204 0.22239792 22.528
1.6206275 -0.37182301 0.21895857 22.015999
1.6249763 -0.24005079 0.2439038 22.528
1.6340257 -0.10908068 0.27139866 22.528
1.5994334 -0.030464413 0.2841984 22.528
1.609398 -0.066447727 0.2768783 22.528
0 0 0.069999732 21.149866
-0.28779534 -0.021545365 0.29017866 19.455999
1.6315811 0 0.29483813 22.528
-0.30706605 -0.0063669323 0.30433154 23.040001
1.5896171 -0.0025276158 0.3717199 6.6560001
-0.2999424 0.084644005 0.30776867 22.784
1.6361887 0.07029213 0.31132549 22.528
-0.30559564 0.13124931 0.32207596 22.848
1.6489403 0.14761311 0.33003879 22.271999
-0.31545869 0.24043182 0.34699869 22.912001
1.3643296 0.20986708 0.30358225 18.688
1.4791716 0.21791245 0.32064241 16.384001
1.5520185 0.21856932 0.33150932 16.128
1.6707267 0.21357572 0.34704342 17.152
1.719627 0.21435128 0.35367674 17.92
-0.29295671 0.30242327 0.33966002 21.247999
1.0973262 0.46067137 0.31962609 7.9359999
1.2594889 0.46563736 0.34096205 17.92
1.259123 0.51137471 0.35215345 13.312
1.3276768 0.51320267 0.36172947 16.128
-0.47624812 -0.11114682 0.46355009 23.296
-0.46857393 -0.082820505 0.44198823 23.296
-0.39701644 0.48573107 0.45105034 21.247999
-0.42042357 0.56480074 0.4858014 22.9888
-0.41769183 0.60719377 0.4955 23.040001
0.028961577 -1.1420807 0.58696645 22.528
0.17408545 -1.1317167 0.55111879 22.528
-0.11159151 -1.2067212 0.69599324 22.784
-0.14817689 -1.1438119 0.68899345 22.656
-0.0185472 -1.1636405 0.62062395 22.528
-0.39014506 0.9951641 0.62700605 22.528
0.44560975 -1.638656 0.78354329 18.739201
0.49120393 -1.5677119 0.76030087 14.592
0.53353459 -1.586923 0.77347159 13.056
-0.11955157 -1.2089658 0.70108271 22.784
-0.18162966 -1.1327113 0.70561278 22.528
-0.51345253 -0.64079529 0.72997344 22.656
1.0687422 1.7427499 0.75163561 22.528
1.1276115 1.7259395 0.75017548 22.4
1.2297943 1.7696021 0.77384889 17.408001
1.0214218 1.8520957 0.78605062 8.1920004
-0.53351051 -0.95300728 0.87703639 22.271999
-0.3753289 1.4435017 0.81452703 22.528
-0.54698056 -1.0223508 0.91717601 22.528
6.6722794 -0.43558225 1.390591 20.394667
6.65874 -0.35761866 1.3794813 20.416
6.7407689 -0.30027309 1.3829159 20.224001
6.6758428 -0.25485256 1.369928 20.224001
6.7054014 -0.27733809 1.3758489 20.224001
6.5779047 -1.1084092 1.4798666 20.736
6.6163406 -1.1473691 1.4919558 20.352001
6.6296258 -1.0522468 1.4801533 20.582399
6.6520586 -0.94756031 1.4632405 20.582401
6.6449933 -0.84976649 1.4496927 20.352001
6.6478028 -0.75364673 1.4315939 20.428799
6.6694269 -0.64891136 1.4208932 20.48
6.665215 -0.55230123 1.4073514 20.543999
6.6697164 -0.49931774 1.4034027 20.48
6.7143574 -0.48119649 1.4066461 20.224001
6.5802031 -1.7613091 1.5890821 20.352001
6.6092672 -1.740948 1.59141 20.48
6.5750594 -1.6502519 1.5699269 20.309334
6.6082692 -1.6400082 1.5719495 20.352001
6.5902557 -1.5357322 1.5509006 20.394667
6.6005435 -1.5824296 1.5590726 20.48
6.5956717 -1.4488218 1.539279 20.543999
6.6042256 -1.4506639 1.5370849 20.224001
6.5912023 -1.3492287 1.5216571 20.416
6.5826454 -1.2821927 1.5089319 20.352001
6.623219 -1.2355386 1.5084068 20.394667
6.6440039 -1.1957364 1.5022099 20.736
6.5340829 -2.2547734 1.6823078 20.428799
6.5576429 -2.1584215 1.6666558 20.352001
6.5543785 -2.0515451 1.6409061 20.224003
6.5565262 -1.9406378 1.6223955 20.416
6.5637722 -1.852291 1.6060274 20.48
6.9567757 3.0779068 1.6869755 19.775999
6.490458 -2.7126451 1.7952704 20.224001
6.4953418 -2.6181517 1.7761899 20.48
6.5204773 -2.6584997 1.7870146 20.416
6.5312862 -2.5485473 1.761009 20.288
6.5463958 -2.4589343 1.7382393 20.224001
6.5294776 -2.3582478 1.7092682 20.416
6.9496627 3.1677639 1.7066975 19.797333
6.9578819 3.2520077 1.728192 19.882668
6.9793749 3.3982708 1.7667601 19.455999
6.9852161 3.4562492 1.7818509 19.541334
6.9922776 3.5152638 1.7995107 19.200001
6.4647713 -3.0340452 1.8874364 20.309334
6.4883404 -2.9699478 1.8666157 20.096001
6.5130529 -2.9500537 1.8672924 20.224001
6.4891829 -2.8095896 1.8215539 20.224001
6.5122018 -2.8688724 1.8442565 20.394667
6.4966831 -2.7395475 1.8049674 20.48
6.5075788 -2.7807789 1.8200428 20.096001
6.9912615 3.5706654 1.8175008 19.84
7.0421686 3.5966301 1.8302032 19.712
6.9956636 3.671623 1.8446025 19.584
7.0101562 3.6366739 1.8343074 19.200001
6.9947281 3.7280464 1.863119 19.455999
7.0312772 3.7906964 1.8867649 19.200001
7.0414653 3.8251369 1.892531 19.455999
0.91759425 -4.4825478 1.9925382 20.736
1.0029277 -4.2731557 1.9142888 20.48
5.9466043 -3.4796033 1.9942374 19.712
5.9419432 -3.3637292 1.9459511 19.968
6.4687095 -3.3297091 1.9821016 20.544001
6.4643712 -3.2370026 1.9512867 20.565332
6.468286 -3.1494601 1.9254416 20.48
6.48523 -3.0941401 1.9084704 20.224001
7.024756 3.874121 1.907504 19.370667
6.9920244 3.9728723 1.937995 19.712
7.0352354 3.9531541 1.9281772 19.455999
7.0204701 4.0632396 1.960735 19.626665
5.9465537 -3.6293545 2.0455096 19.626665
5.9575539 -3.5499728 2.0212343 19.114668
7.0514598 4.2627988 2.0195463 19.370667
7.0651817 4.3636575 2.0459807 19.370668
7.0766616 4.4645562 2.0813696 19.370667
7.0630283 4.5189643 2.099215 19.712
2.0999992 -4.6071668 2.1974592 19.455999
1.8614028 -4.5550079 2.13761 18.304001
2.0568488 -4.5895553 2.1832554 18.858667
2.1316767 -4.5735345 2.1902282 19.968
7.0882745 4.5989079 2.1216922 18.944
7.111537 4.5819349 2.1173267 18.944
7.066133 4.6486526 2.135258 19.285334
7.0757923 4.7360125 2.165174 18.944
2.1686451 -4.6017675 2.207531 19.968
2.2042394 -4.6011853 2.2137289 19.968
2.4448111 -4.6046925 2.2606013 20.736
2.6149793 -4.602212 2.2798018 21.247999
2.7558682 -4.6082668 2.2971137 20.992001
2.1473644 -4.5944419 2.2009456 20.224001
2.2229669 -4.5655026 2.2036572 20.224001
2.3535557 -4.5722404 2.2307734 20.3776
2.4536629 -4.5771322 2.2509806 20.736
2.5121469 -4.5723186 2.2573738 20.864
2.6472061 -4.5738487 2.2690966 20.928001
2.7289164 -4.5851603 2.2815704 21.077333
2.8509593 -4.5996504 2.2999899 20.992001
2.9034607 -4.5860753 2.296998 20.736
6.2614555 -4.1478252 2.2892849 19.52
6.9586339 4.9517374 2.2255578 18.751999
6.9493942 5.0456724 2.2567677 19.072001
6.9511104 5.1318126 2.2877417 19.114668
4.1775928 5.492404 2.2770877 19.200001
4.2451124 5.490036 2.2808304 19.84
4.3094602 5.4826417 2.2886286 19.968
4.4502587 5.480155 2.2921398 19.712
4.51507 5.4882703 2.2950492 19.712
2.5479758 5.5899658 2.2103848 20.352001
2.6509171 5.5787745 2.2087154 20.352001
2.7694278 5.5747805 2.213377 20.608
2.8901405 5.5711179 2.216258 20.224001
2.9428902 5.585598 2.2236018 20.48
3.9990115 5.5078492 2.2757957 19.968
4.056356 5.5126996 2.280304 19.882668
4.1443157 5.5210533 2.2857668 20.053335
4.2153025 5.5055623 2.28775 19.712
4.3703327 5.5058241 2.2975178 19.84
2.4827275 5.635674 2.2235599 19.455999
2.5216835 5.6108785 2.217665 20.309334
2.6496024 5.6106329 2.2198188 20.608
2.7304335 5.607769 2.2189698 20.224001
2.8875165 -4.6093893 2.3064861 20.992001
2.9987016 -4.6058297 2.3101664 20.736
3.0582154 -4.6164842 2.3246481 20.543999
3.1248198 -4.6049609 2.3234086 20.736
3.2729931 -4.6307206 2.3459356 20.394667
3.331609 -4.6349859 2.3482695 20.48
3.4643865 -4.6306124 2.3550949 20.48
3.6696599 -4.6381917 2.3676794 20.352001
3.8670778 -4.6550412 2.3837335 19.968
3.9133103 -4.6503391 2.385679 20.48
4.0921149 -4.6487398 2.3970726 19.968
3.0962493 -4.5942287 2.3182762 20.224001
6.2259312 -4.4005461 2.3993251 19.968
6.2327065 -4.3413215 2.373673 19.882668
6.2232356 -4.2809987 2.3461158 19.968
-0.0081044547 5.0860567 2.3297963 19.968
6.8610487 5.2704468 2.3260756 18.944
6.9426932 5.2459564 2.3249013 19.264
6.8632193 5.3243084 2.3457789 18.816
4.315465 5.5263596 2.3007555 19.712
4.4445829 5.5267973 2.3114071 19.712
4.5345764 5.5118484 2.3076367 19.584
2.0782468 5.991622 2.3699715 20.48
2.245923 5.9792871 2.3532102 20.48
2.3784385 5.982811 2.360333 20.608
2.4465618 5.987082 2.3596287 20.352001
1.9487764 6.0171986 2.3899679 20.352001
2.0358284 6.0234704 2.386971 20.352001
2.1526732 6.0200591 2.3742683 20.3776
2.2436931 6.0119948 2.3675992 20.138666
2.3369198 6.0172067 2.3681831 20.224001
2.4236472 6.0128002 2.3706105 20.48
4.1168003 -4.7068734 2.4250846 19.968
4.2448711 -4.7003598 2.4275939 19.712
4.5095654 -4.714922 2.4474909 19.712
4.8118143 -4.7359009 2.4659257 19.84
4.953218 -4.7224302 2.4691224 19.455999
5.0100002 -4.7462449 2.4893026 19.455999
3.8903334 -4.6831684 2.4003639 20.48
4.0638041 -4.6762071 2.4086909 19.712
4.2757158 -4.6893139 2.4239488 20.224001
4.3983192 -4.6873174 2.4290795 19.968
4.4473553 -4.6944919 2.4349041 19.712
4.5212379 -4.6971307 2.4400935 19.968
6.1395903 -4.4725733 2.4194191 19.455999
6.2184386 -4.4548564 2.4199352 19.797333
6.8684826 5.5596428 2.4299121 19.370668
6.9171844 5.5265584 2.4223683 18.944
5.9001083 5.6791668 2.4352443 19.200001
6.2759638 5.6859379 2.4492016 18.816
6.352756 5.6641922 2.4435625 18.944
6.6855063 5.6623354 2.4626307 18.944
6.7561855 5.6488223 2.4556925 18.858667
6.8388147 5.6261554 2.4483423 19.200001
5.0853434 5.7956238 2.4386246 19.455999
5.1408572 5.7842355 2.4386284 19.285334
5.2477384 5.7737217 2.4390328 19.392
5.3646255 5.7597337 2.4440081 19.029333
5.4523492 5.7369747 2.433414 19.200001
5.5073051 5.7033849 2.425935 18.944
5.6819773 5.7182035 2.4351456 19.327999
5.7701845 5.7336063 2.4464834 19.200001
5.8471351 5.7183385 2.4434803 19.029333
6.235044 5.7032418 2.4544632 18.431999
1.3559868 6.0807252 2.4917274 20.416
1.4444873 6.0675945 2.4815524 20.428799
1.5416415 6.0473442 2.4543724 20.326401
1.6567736 6.0546594 2.4451778 20.522667
1.7532814 6.029027 2.4237325 20.416
1.8519142 6.044301 2.415498 20.428799
5.7648559 -4.8199596 2.5626538 19.200001
5.8221703 -4.8208838 2.5645967 19.712
6.1853352 -4.8300714 2.5866838 20.223999
6.2007642 -4.8421006 2.5929396 19.968
5.6034131 -4.7919312 2.5408967 19.455999
6.1888294 -4.7541099 2.549557 19.968
6.2376347 -4.7444258 2.55007 19.968
0.17483658 5.7854691 2.5940042 20.864
0.22156112 5.8037558 2.5947211 20.736
0.95276129 6.0966148 2.5714083 20.48
1.0433229 6.0929513 2.5528612 20.48
1.2486624 6.0751009 2.5110323 20.416
1.3072433 6.089766 2.5034814 20.224001
0.89076591 6.1138387 2.593843 20.736
0.9514786 6.1206245 2.5809045 20.416
1.0793819 6.1088982 2.5542862 20.48
1.1605822 6.1135268 2.5426006 20.48
1.234081 6.1277337 2.5343206 20.48
6.1525922 -4.8677816 2.6058114 19.712
0.203455 5.8144045 2.6043682 20.48
0.46420076 6.1561623 2.6901023 20.565332
0.54987448 6.1590528 2.678277 20.736
0.64762145 6.1491308 2.6513386 20.582399
0.75222367 6.1291909 2.6235619 20.5312
0.843409 6.1299262 2.607353 20.544001
0.38232672 6.1580734 2.7099571 20.48
0.43329424 6.1832609 2.7080975 20.736
0 0 0.069999717 21.902872
0.95924598 1.7413837 0.049044661 22.655998
1.0673739 1.767728 0.061286733 22.784
1.3425201 2.8647954 0.0020311289 22.144001
1.8927878 1.8584762 0.15448368 22.016001
2.0124321 1.8539755 0.16765426 18.176001
1.8492631 1.9105705 0.14447579 20.736
2.0504947 1.9011362 0.16979425 18.176001
1.8846533 2.1020682 0.13607293 15.872
1.9007076 2.1064532 0.13640049 16.128
1.2131293 0.25561783 0.2642467 22.528
1.3162649 0.20257765 0.29115424 20.48
1.2245662 0.30404007 0.26018143 22.528
1.2210106 0.4468042 0.23624364 22.528
1.6961012 0.89415693 0.25220883 21.76
1.7102002 0.87754631 0.2585907 21.632
1.7250221 0.96995813 0.24314415 21.184
1.6976918 1.0343202 0.22511303 21.504
1.7155875 1.0415645 0.22736445 21.184
1.6940991 1.1036762 0.21372342 22.271999
2.280519 1.8292747 0.21253496 16.639999
1.5472512 0.055532411 0.35557914 13.056
1.6422768 0.043935809 0.37450108 9.4720001
1.7041862 0.021687686 0.38942933 5.888
1.5732291 0.12538968 0.35077995 13.312
1.6574502 0.14825064 0.36357716 13.624889
1.4770454 0.22011212 0.31916624 18.176001
1.656626 0.22132769 0.35347757 16.639999
1.7269853 0.20701411 0.36981952 14.848
-0.32322583 0.081137843 0.091791004 23.167999
0 0 0.069999725 22.307173
-0.31036437 0.12450938 0.082646519 23.040001
-0.29645234 0.18034686 0.069866881 23.040001
-0.30223513 0.22522034 0.062336054 23.296
-0.28812969 0.23340651 0.060992315 23.040001
-0.30271015 0.36430579 0.052004013 23.040001
-0.28926113 0.32850775 0.054042391 23.040001
-0.29646507 0.40825409 0.048504427 22.784
-0.31412154 0.5177629 0.03697763 23.040001
-0.50208992 -0.24815193 0.18120864 23.808001
-0.49265161 -0.2457121 0.17945205 23.694221
-0.49133688 -0.13608976 0.15621735 23.808002
-0.47830543 -0.082277142 0.14213008 23.808001
-0.33031765 -0.0013138483 0.10651273 23.296
-0.51392782 -0.61264515 0.2940315 23.167999
-0.50947446 -0.56564635 0.27643493 23.167999
-0.5056783 -0.44352069 0.23251916 23.296
-0.49913174 -0.45533192 0.23638035 23.296
-0.5054844 -0.37045914 0.2111208 23.398399
-0.54743844 -0.87693 0.39279068 22.784
-0.52508223 -0.75846553 0.34959248 22.912001
-0.19779757 -1.1424218 0.49249765 22.528
-0.54193711 -0.95464367 0.42073616 22.528
-0.5226903 -0.89980781 0.40106621 22.528
-0.12002059 -1.3025244 0.5718227 22.528
-0.058834065 -1.2852757 0.57724148 15.616
-0.15095602 -1.1399099 0.50104731 22.528
0.049179852 -1.1362678 0.54358059 22.613333
0.11139442 -1.1031654 0.54693443 22.528
0.85797107 -4.5062089 2.1482825 21.247999
0.920111 -4.5187564 2.1721079 20.992001
0.8806653 -4.4829426 2.1455288 20.906668
0.92807502 -4.4848318 2.1619341 20.736
1.0565829 -4.3424668 2.1467834 20.095999
1.1076062 -4.3341599 2.1633196 20.48
1.2672461 -4.5075684 2.2815344 21.247999
1.2957361 -4.4987993 2.2914853 21.247999
2.3523812 -3.3672423 2.2834404 19.904001
2.3962972 -3.2724433 2.2747455 20.608
1.3547455 -4.5140381 2.3197026 21.247999
1.4539367 -4.5284333 2.361454 21.247999
1.5389709 -4.5202007 2.3887429 21.184
1.3254187 -4.4941144 2.3021069 21.247999
2.725877 -3.0125802 2.3990438 21.247999
2.7334239 -2.9480665 2.3924875 21.162666
2.7486084 -2.8590469 2.3835227 21.205336
2.7707179 -2.7564309 2.3814373 20.991999
2.7790749 -2.6443124 2.3711581 20.889599
2.8048794 -2.6182134 2.3845124 20.992001
2.7905841 -2.5800555 2.3665099 20.864
2.8163292 -2.5463614 2.3785892 21.0944
2.83198 -2.4418492 2.3764706 21.068802
2.8456318 -2.3391037 2.377665 21.247999
2.8464634 -2.28406 2.3758852 21.247999
2.8510401 -2.1535797 2.368367 21.174856
2.8744631 -2.0578759 2.3802707 21.333332
2.882334 -1.9466867 2.3851888 21.247999
2.8795378 -1.8522927 2.3785105 21.344
2.8810413 -1.7496549 2.3766813 21.504
2.8863013 -1.6416645 2.3815374 21.333334
2.88555 -1.5454364 2.3799405 21.504
2.9022212 -1.55428 2.3932157 21.440001
2.8934646 -1.4444469 2.3838151 21.504
2.9053741 -1.4447193 2.3943973 21.567999
2.8984435 -1.3505175 2.3877301 21.375999
2.905633 -1.346193 2.39482 21.589333
2.9083121 -1.2395637 2.3949149 21.350399
2.9126 -1.1418028 2.3928812 21.504
2.8934357 -1.0354912 2.3774741 21.504
2.9212968 -1.0630842 2.3969138 21.418665
2.925015 -0.95328486 2.3948472 21.4016
2.9245384 -0.84106612 2.3880336 21.504
2.9457059 -0.77656841 2.3978591 21.504
2.9547577 -0.65446365 2.3927155 21.312
2.9780741 -0.51684535 2.3943973 21.375999
2.9821007 -0.49801031 2.3950067 21.504
3.0022948 -0.32127002 2.3919587 21.504
3.0197711 -0.24557891 2.3998835 21.247999
1.5922914 -4.5343971 2.4116881 21.247999
1.6471291 -4.5284648 2.4312675 21.0944
1.7635468 -4.5317979 2.4753551 21.184
2.6890235 -3.4259119 2.483032 20.992001
2.6933482 -3.3429227 2.4571509 20.736
2.7022684 -3.3322322 2.4599564 20.992001
2.7164395 -3.0899704 2.409719 21.119999
2.9208975 -1.4697542 2.407583 21.504
2.9167876 -1.3419956 2.4047239 21.375999
2.9194534 -1.2541754 2.4038119 21.504
2.9262938 -1.1616905 2.4077246 21.439999
2.9411244 -0.95849347 2.4066465 21.440001
2.9589005 -0.82721645 2.4127314 21.247999
2.9668806 -0.7562412 2.413904 21.430857
2.9713724 -0.65815568 2.4066935 21.247999
2.988271 -0.56182569 2.4082959 21.504
3.0026422 -0.54577124 2.4169521 21.247999
2.9967942 -0.46377414 2.4020171 21.247999
3.0139599 -0.44861442 2.4133708 21.375999
3.020757 -0.36076853 2.409637 21.467428
3.0459533 -0.25200662 2.4204743 21.418667
3.0495346 -0.15008435 2.4180605 21.504
3.0655506 -0.052521087 2.4278574 21.418667
3.0535216 5.3389471e-07 2.4181714 21.504
1.8579534 -4.5513654 2.515373 21.077333
1.963809 -4.5466633 2.554647 20.889599
2.0547426 -4.5567012 2.5911236 20.9408
1.8927441 -4.4997196 2.5067961 20.992001
2.1418519 -4.5549903 2.6271603 20.8384
2.270858 -4.5626202 2.6844797 20.992001
2.3242071 -4.5601678 2.6989636 20.992001
2.6250207 -4.1583056 2.6758461 20.223999
2.4027679 -4.6051116 2.7480569 20.992001
2.3458443 -4.5785108 2.7157614 20.821333
2.4280112 -4.5821319 2.7486775 20.906668
2.5737739 -4.5467148 2.7968161 21.119999
2.6056261 -4.4937925 2.7886965 20.48
2.6221354 -4.3141017 2.7270575 20.48
2.5428715 -4.6110153 2.8079553 21.247999
2.5906408 -4.5736022 2.8107662 20.906668
-0.50551599 -0.45699421 0.024185974 23.296
-0.50097024 -0.36236912 0.043143257 23.424
-0.49596056 -0.34847748 0.045327608 23.552
-0.30515629 -0.38131732 0.019425835 23.040001
-0.28435162 -0.37449566 0.018753976 23.296
-0.49202982 -0.28242615 0.056358282 23.637335
-0.48678881 -0.14064343 0.075017758 23.84
-0.47493687 -0.075949363 0.084282421 23.722666
-0.324779 -0.024097322 0.084625967 23.040001
-0.34272105 0.017208707 0.094127871 24.063999
0 0 0.069999725 22.45842
-0.3188467 0.079806477 0.10550296 23.210665
-0.30387819 0.14736256 0.12063868 23.040001
-0.30813792 0.22670725 0.1498785 23.040001
-0.30974075 0.32033244 0.18521653 22.954666
-0.31127116 0.38391873 0.20742515 23.040001
-0.30571133 0.46221584 0.23404166 22.784
-0.29978344 0.4646579 0.23477861 22.784
-0.29911122 0.50133997 0.24689177 22.784
-0.38680393 0.9004342 0.36694616 22.528
-0.38331383 1.0449398 0.40725428 22.528
-0.11785301 3.9438546 1.3508906 21.418665
-0.048481539 3.927938 1.3576545 21.375999
